0.043022 -0.072113 0.016408 
-0.047249 -0.227902 0.039058 
-0.062203 0.059115 0.186601 
-0.040292 0.047442 0.005336 
0.204764 -0.014861 0.03756 
-0.057427 -0.231707 0.070866 
0.043012 -0.20434 0.181898 
-0.131306 -0.081456 0.025827 
0.14566 -0.225907 0.018254 
-0.058226 -0.192479 0.029595 
0.199623 -0.20408 0.192099 
0.138316 0.224251 0.381165 
-0.098343 -0.006704 0.003103 
0.235581 -0.172432 0.110281 
-0.146642 0.168172 -0.008531 
-0.186698 -0.15217 0.27939 
-0.173021 0.163859 0.053023 
-0.188938 -0.112791 0.074743 
-0.169867 -0.00071 0.003849 
-0.178387 -0.143734 0.221313 
-0.126924 0.198681 -0.290509 
-0.00032 0.256 -0.136038 
0.083579 0.190736 0.191781 
-0.204675 -0.124974 0.295207 
0.155135 -0.200899 0.326008 
0.227369 0.125474 0.054676 
0.101117 0.168368 0.029467 
-0.143086 -0.114307 -0.060155 
-0.019251 -0.240285 0.153666 
-0.20602 -0.133627 0.239251 
-0.203435 -0.186358 -0.384432 
0.179576 0.223974 0.064495 
-0.186075 0.139722 0.100579 
-0.143447 -0.114546 -0.051099 
0.15488 -0.124436 0.205246 
0.03936 0.061116 0.002001 
-0.130907 0.198817 0.074523 
0.264712 0.07698 0.09451 
-0.041815 -0.034863 -0.004956 
-0.172518 -0.136718 -0.120774 
-0.204156 -0.119705 0.270142 
0.117389 0.018854 0.017695 
0.250642 -0.096591 0.10148 
-0.104058 0.224229 -0.168602 
-0.165044 0.181368 -0.393761 
0.181268 -0.215042 0.242053 
0.080027 -0.148658 0.199387 
-0.144323 0.169041 -0.221449 
-0.224879 -0.163093 0.352282 
0.046133 0.195803 0.019655 
0.020782 -0.247522 -0.125382 
-0.184627 0.167866 -0.205183 
-0.229866 0.115112 -0.484061 
-0.225266 -0.005341 0.103705 
-0.189317 -0.098922 0.059294 
0.167044 -0.288416 -0.082028 
0.179231 0.204455 0.060924 
0.175797 -0.081531 0.202392 
0.200455 0.261384 0.194297 
0.036999 -0.249688 -0.136157 
-0.109059 0.211395 0.055812 
-0.136113 0.139546 0.031703 
-0.239169 0.062365 -0.469472 
-0.14593 0.099749 0.033769 
0.10997 -0.041175 0.21394 
0.02547 -0.05368 0.200749 
-0.164679 -0.142339 -0.026226 
-0.159949 0.112255 -0.08131 
0.005651 -0.141217 0.184657 
0.09142 0.265264 -0.102523 
-0.002314 -0.186627 0.170126 
-0.022308 0.08253 0.191599 
-0.136551 0.151501 -0.032548 
0.163632 -0.07567 0.203285 
-0.02577 -0.146672 0.188338 
-0.154731 -0.131903 0.148357 
0.205257 -0.051912 0.208437 
0.256009 0.019557 0.157757 
0.145741 -0.258877 0.046693 
-0.167475 0.161524 -0.175401 
0.183717 0.268412 0.30112 
-0.173912 0.203572 -0.263953 
-0.156176 -0.116329 0.043473 
-0.211907 -0.002723 0.081289 
0.061551 -0.078414 0.010876 
0.19351 0.064946 0.208767 
-0.053293 -0.163867 0.026216 
0.245571 -0.034956 0.058878 
-0.155072 0.158927 -0.221031 
-0.136905 0.017458 0.173208 
-0.152819 0.124539 -0.039917 
-0.216106 -0.1485 0.243686 
-0.166862 0.106638 -0.161128 
-0.138482 -0.123639 -0.014277 
0.010418 0.255996 0.035771 
-0.160499 0.214726 -0.4125 
-0.236597 -0.064633 -0.446028 
-0.151313 0.149897 -0.059947 
0.159873 0.179388 0.048573 
0.035466 -0.219068 0.03488 
-0.097269 -0.226673 -0.12062 
0.116507 0.271918 -0.067989 
-0.106226 0.223014 -0.119692 
0.029928 -0.268208 -0.115036 
0.054259 0.281299 -0.141373 
0.208004 0.058233 0.210955 
-0.155694 0.201774 -0.275351 
-0.101986 0.002919 0.166255 
-0.127033 0.201171 0.115243 
-0.01092 0.243025 0.168142 
-0.165805 -0.167491 -0.158433 
0.007701 -0.146714 0.021639 
-0.212974 0.071113 0.105263 
-0.139429 0.204228 -0.286315 
-0.168593 -0.127142 -0.204122 
-0.131971 -0.119999 0.040413 
-0.225935 0.141544 -0.422507 
0.178209 0.257805 0.244935 
-0.166379 0.222944 -0.360051 
0.161821 -0.217061 0.495868 
0.037023 -0.121131 0.019493 
-0.224619 -0.110354 -0.436632 
0.142828 -0.250171 0.05191 
0.206581 -0.252451 0.139287 
0.026485 -0.183448 0.020476 
0.050809 -0.02422 0.202855 
-0.168271 -0.162648 0.158193 
0.210918 -0.163162 0.180151 
-0.160936 0.217041 -0.254068 
0.134915 0.073942 0.01781 
0.219493 -0.11811 0.056723 
0.229837 -0.214192 0.083586 
0.162232 0.17588 0.193039 
-0.132144 -0.019279 0.174888 
0.145502 0.252832 -0.097557 
-0.224698 0.048421 -0.188401 
-0.033721 -0.034145 0.19173 
-0.148123 0.03833 0.157632 
-0.272952 -0.018976 -0.479535 
-0.03163 -0.260225 -0.128259 
-0.233827 0.17766 0.328539 
0.208264 0.128921 0.191124 
-0.18227 -0.116877 0.037916 
-0.17593 -0.145139 0.19595 
0.181849 -0.240428 0.346717 
-0.116531 -0.167343 0.160448 
-0.043796 -0.224571 -0.128751 
-0.000794 -0.088482 0.193307 
0.272574 -0.007061 0.142512 
-0.191606 0.184687 -0.404914 
-0.111694 -0.198335 -0.158667 
-0.209049 0.179015 0.344721 
0.115858 0.249778 -0.036316 
-0.176353 0.201563 -0.376458 
0.262985 0.089697 0.087596 
-0.127109 -0.031397 0.166142 
0.153392 0.04378 0.025676 
-0.200398 0.114529 0.128817 
-0.183904 0.150841 -0.114139 
0.013357 0.118773 0.199826 
-0.155443 -0.056904 0.158406 
0.235849 -0.229763 0.109017 
0.139428 -0.166036 0.043689 
-0.263477 -0.087567 -0.489459 
-0.256 0.189311 0.409237 
0.250816 0.000319 0.059402 
-0.195179 -0.057496 -0.186359 
-0.071919 -0.196244 0.162667 
0.036473 0.007128 0.217768 
-0.073362 -0.051571 0.183058 
-0.125012 -0.129518 0.161881 
0.227769 0.198994 0.120923 
0.201464 0.191509 0.187987 
0.089509 0.021229 0.209669 
-0.222665 -0.10069 -0.427666 
0.193696 0.265135 0.277606 
-0.136473 -0.182235 0.033946 
-0.156642 -0.217983 -0.333651 
-0.034375 -0.238376 0.151235 
0.158835 0.269708 -0.002667 
-0.189821 0.047938 0.146925 
0.099113 0.042788 0.01159 
-0.106684 -0.087788 0.18658 
0.043381 0.059159 0.001917 
0.074135 0.261893 0.043484 
0.115159 0.286594 -0.126937 
0.173931 -0.248745 0.01653 
-0.15016 0.120246 -0.082299 
-0.044434 -0.221559 -0.149691 
0.179691 -0.286846 -0.090262 
0.102019 -0.244546 -0.045148 
0.212154 0.1655 0.191069 
-0.072678 0.234 0.059807 
-0.016073 -0.021593 0.195173 
0.065795 -0.243886 0.05886 
-0.101172 0.226834 -0.161793 
0.110736 0.278462 -0.095998 
0.205906 0.186214 0.185507 
-0.234773 0.189644 0.366824 
0.102668 -0.17715 0.027095 
-0.095241 0.17093 0.034891 
-0.118014 0.203871 -0.186056 
-0.140729 0.115785 0.158308 
0.184038 0.273017 -0.100651 
0.209412 0.086036 0.21148 
-0.143729 -0.181531 0.076675 
-0.13715 0.205445 0.095274 
-0.182071 0.054513 0.028138 
-0.182474 0.177865 -0.423909 
0.002007 0.276489 -0.141428 
0.15417 0.266837 -0.095951 
0.016285 -0.242682 0.038855 
0.196136 -0.166782 0.052717 
-0.217237 -0.168238 -0.412974 
-0.246478 -0.137289 0.355197 
-0.086628 0.232091 0.117724 
-0.239905 0.168127 0.354906 
-0.23125 0.130278 -0.46296 
0.214837 -0.228104 0.194748 
-0.192276 0.036028 -0.178261 
-0.197457 -0.104623 0.06253 
-0.177747 0.150715 -0.127105 
0.220661 0.12763 0.05282 
0.168614 0.25848 0.364607 
-0.208358 0.162056 -0.472198 
0.068347 0.100092 0.016359 
-0.143298 -0.1561 -0.174213 
0.192749 -0.147343 0.054161 
-0.055573 -0.042067 -0.001903 
0.105131 -0.09082 0.209949 
0.212823 0.221196 0.201656 
0.106223 -0.292705 -0.124902 
-0.175103 0.03524 0.153644 
0.071364 -0.255497 0.140792 
0.098391 -0.195262 0.037112 
-0.148885 -0.124977 -0.142549 
0.145704 -0.170494 0.043976 
0.000615 -0.130473 0.011279 
0.264949 0.066829 0.088294 
-0.067911 0.245484 0.091733 
0.173236 -0.137414 0.04399 
-0.057197 -0.226367 0.148184 
0.174689 0.250212 0.335682 
0.070802 -0.080717 0.00917 
-0.163197 -0.130481 -0.21674 
0.174038 0.221584 0.293069 
0.248104 0.051168 0.054798 
-0.085173 -0.200106 0.15198 
0.187209 0.154052 0.039356 
0.199719 0.074932 0.05048 
-0.179144 -0.113418 -0.20534 
-0.194987 0.045134 -0.186654 
0.266065 -0.056022 0.144418 
0.266534 0.069843 0.14675 
-0.229533 0.187178 0.365293 
0.167379 0.121708 0.207972 
0.055463 -0.23203 0.044393 
-0.190216 0.015309 -0.208513 
-0.180907 -0.116595 0.050695 
0.258435 -0.064922 0.096426 
0.08402 0.155667 0.01768 
-0.020383 -0.17533 0.173113 
0.052367 0.22682 0.03803 
-0.133804 0.210566 0.063241 
-0.047973 0.247339 0.053197 
0.128744 -0.077721 0.200061 
0.194274 -0.198502 0.052019 
-0.230811 -0.144191 0.353513 
-0.186773 0.024902 -0.177536 
-0.10147 -0.213235 0.108145 
-0.158461 0.130198 -0.107669 
-0.106624 -0.221916 -0.131064 
-0.017247 -0.016561 -0.009325 
0.032847 -0.246381 -0.126247 
0.064034 -0.258845 -0.121824 
-0.19628 -0.184203 -0.345112 
0.185656 -0.041163 0.213566 
0.017172 -0.043131 -0.004408 
-0.196293 0.150444 0.211235 
0.235598 -0.236738 0.09237 
-0.031867 -0.170208 0.013956 
0.158314 -0.130522 0.039029 
-0.173908 0.161425 0.063429 
0.264483 0.052878 0.131869 
0.179362 0.244105 0.042997 
-0.061439 0.224069 -0.149829 
-0.013897 -0.147929 0.185903 
-0.208561 0.156608 0.244946 
0.164469 -0.182722 0.186143 
0.131298 -0.264171 0.005032 
0.057324 -0.045602 -0.008023 
0.149179 0.250331 0.469811 
-0.133722 0.158542 0.159908 
-0.248835 -0.16968 0.361594 
0.140744 -0.211723 0.48079 
0.214846 -0.170885 0.162077 
-0.192245 -0.176179 -0.381701 
0.202987 0.089155 0.207819 
0.023455 -0.093327 0.207146 
0.199578 -0.216451 0.261602 
-0.176916 0.157753 -0.179447 
-0.131342 0.196926 -0.149037 
-0.208943 -0.02081 -0.205819 
0.254385 -0.067374 0.133874 
0.029147 -0.197117 0.18228 
0.068131 -0.089119 0.016346 
0.237004 -0.165675 0.087441 
-0.039349 0.216637 0.030005 
-0.138252 0.197354 0.083707 
0.020746 -0.137328 0.198345 
-0.024055 -0.126609 0.184487 
0.218739 0.270527 0.090807 
0.137745 -0.187292 0.053399 
0.062612 0.263584 0.076938 
0.180511 -0.255173 0.075203 
0.059393 0.165548 0.009058 
-0.203374 -0.018058 0.147123 
0.191951 0.26505 0.255269 
-0.201451 0.109183 0.073971 
-0.167449 -0.205393 -0.405054 
0.225799 -0.146831 0.074492 
0.157027 -0.281794 -0.126952 
-0.158792 0.111299 -0.06654 
-0.001614 0.255751 0.137498 
0.112013 0.164155 0.204839 
0.130511 -0.233253 0.018173 
-0.079711 -0.185139 0.017643 
-0.016631 -0.2271 -0.138889 
-0.085661 -0.224626 0.043082 
0.108912 0.253734 0.160015 
0.172612 -0.215403 0.357832 
-0.181851 0.158896 -0.208375 
-0.258177 -0.080509 -0.450083 
-0.212058 0.054206 -0.197511 
-0.157865 0.121761 -0.015549 
0.18141 -0.223242 0.069666 
0.197136 -0.121018 0.044474 
-0.17592 -0.131441 -0.117444 
0.169599 0.244886 0.448058 
0.073187 -0.054409 0.212268 
-0.218671 -0.012503 -0.179966 
-0.195605 -0.103611 0.055476 
0.244707 0.207616 0.103352 
0.068146 0.024357 0.209112 
-0.097771 0.027665 0.173731 
0.245251 -0.097006 0.162669 
-0.147664 0.150673 0.162483 
0.191207 0.231128 0.329116 
-0.209783 -0.143334 -0.437048 
0.140846 0.19723 0.19255 
-0.085678 0.221674 0.037829 
0.093587 -0.287398 -0.120764 
-0.112039 -0.16811 -0.15267 
-0.164985 -0.133714 -0.000126 
-0.064076 -0.087282 0.180617 
-0.120757 0.188025 -0.187046 
0.168965 0.239788 0.01442 
0.052841 -0.248949 0.108307 
0.072496 -0.116008 0.197624 
-0.12005 -0.004213 0.004904 
-0.22339 0.156653 0.287139 
0.054483 0.167184 0.02251 
-0.170137 0.203478 -0.425424 
0.191178 0.094204 0.203141 
-0.186779 -0.043759 0.151553 
0.255046 0.047973 0.202977 
-0.135346 0.121695 0.162476 
-0.181276 -0.12724 -0.18694 
-0.143809 -0.184132 -0.214733 
-0.137705 -0.100643 -0.09269 
-0.077362 -0.018503 0.180727 
0.054638 0.184971 0.022815 
-0.045715 0.244883 0.046189 
-0.251965 0.160042 0.36717 
-0.165651 0.12608 -0.000544 
0.150116 0.24861 0.053185 
0.186158 0.038081 0.038603 
0.233943 0.223189 0.07207 
0.119197 0.254403 -0.025675 
-0.212389 0.021941 -0.213823 
0.053512 -0.25993 -0.138948 
0.229441 -0.115362 0.062962 
-0.161826 0.118513 -0.126709 
-0.048978 -0.199964 0.024167 
0.179167 0.20468 0.319043 
0.105022 -0.25318 0.084554 
0.229493 -0.149886 0.089103 
0.188408 0.228431 0.343081 
-0.201269 -0.050206 -0.170351 
-0.176516 -0.074757 -0.16333 
-0.215102 -0.17242 -0.454867 
0.141531 -0.275347 -0.037201 
-0.201411 0.043712 0.034643 
0.133725 -0.264448 -0.072558 
-0.092481 -0.179872 0.01907 
-0.252541 -0.055288 -0.426637 
-0.219385 0.171028 0.260225 
-0.099475 0.19253 0.169392 
-0.021863 -0.25153 -0.1453 
-0.015707 -0.095955 0.182332 
-0.192553 0.171991 0.20513 
0.195878 0.187436 0.063463 
0.173508 -0.10186 0.19902 
-0.158611 -0.147317 -0.137979 
0.220245 0.217718 0.066764 
-0.165251 -0.144134 -0.229629 
-0.170849 -0.095453 -0.16967 
-0.199578 0.101181 0.118634 
-0.144302 -0.052572 0.16593 
-0.190087 0.157321 0.168626 
0.122218 0.266119 -0.099666 
0.119066 -0.25239 0.117241 
0.229944 0.105178 0.18545 
-0.179902 -0.112935 -0.192841 
-0.202278 -0.144176 0.217206 
0.136885 -0.180653 0.056365 
-0.082954 -0.097344 0.011349 
-0.164462 -0.192915 -0.402523 
0.098497 -0.252746 0.089671 
0.011381 -0.248324 -0.14064 
0.191079 -0.058908 0.03619 
0.068344 -0.127852 0.202486 
-0.23986 0.094098 -0.500885 
0.140417 0.269238 0.000277 
-0.122531 0.219115 -0.27908 
0.131192 -0.272304 -0.039859 
-0.159297 0.171795 -0.005815 
0.234842 0.008235 0.045822 
-0.267253 -0.163665 0.419282 
0.089726 -0.096601 0.211531 
-0.169028 0.144952 -0.056436 
-0.046077 0.236923 -0.146733 
0.139554 -0.256856 0.061606 
0.145825 0.259633 0.179591 
-0.163827 -0.179779 -0.345788 
0.228405 -0.155858 0.133956 
0.187548 0.147765 0.205786 
0.075422 -0.29202 -0.125129 
-0.238015 -0.141051 -0.440324 
-0.088841 -0.221495 0.061254 
-0.125224 0.186715 -0.191514 
0.133687 0.22104 0.425015 
-0.15816 0.162862 0.190033 
0.124742 -0.255717 0.053403 
0.245439 0.021012 0.202451 
0.108579 -0.253163 -0.103421 
0.013682 0.260698 0.125529 
-0.046532 -0.13861 0.185501 
-0.187099 0.136587 -0.059605 
-0.177385 -0.177709 -0.286053 
-0.169565 0.185248 -0.414735 
0.193071 0.264334 0.074934 
-0.180361 -0.144923 0.153794 
0.179412 0.286366 -0.080828 
-0.194449 -0.102825 -0.156829 
-0.218224 -0.151396 0.252974 
-0.216031 -0.142053 0.246368 
0.154789 0.259838 0.163866 
0.255971 0.120198 0.099584 
-0.139374 0.139627 -0.00048 
0.240002 0.231286 0.094849 
-0.20745 -0.041237 0.056335 
-0.172319 0.026407 0.01248 
-0.140351 0.171088 -0.153409 
-0.198802 -0.145905 0.3169 
-0.143908 0.123253 0.01247 
0.072239 -0.212898 0.045474 
-0.204101 -0.033738 -0.195409 
-0.206178 -0.174359 0.273936 
-0.237627 0.129473 -0.455819 
-0.187911 -0.121547 0.205043 
0.044456 0.221244 0.183041 
-0.005376 -0.141123 0.183263 
0.116724 -0.258076 -0.124048 
-0.068052 0.070086 0.009148 
-0.077988 0.243472 -0.150978 
-0.002599 0.117684 0.009653 
0.064813 -0.200958 0.187301 
0.075427 0.095441 0.018439 
0.239001 -0.131019 0.131389 
0.090701 0.096921 0.009526 
0.146272 -0.204725 0.333461 
0.220089 0.141099 0.190032 
-0.162229 -0.185802 -0.207958 
0.144411 0.235892 0.365531 
0.084427 -0.151547 0.028433 
-0.057151 0.186953 0.171187 
-0.037782 -0.200437 0.176374 
0.159236 0.255872 -0.068468 
0.129351 -0.257735 -0.115303 
-0.176416 0.142723 0.245562 
-0.143035 -0.037964 0.166721 
-0.16284 0.142236 0.01631 
-0.166719 -0.147507 -0.002729 
0.059175 -0.173539 0.194401 
0.053802 0.079124 0.214659 
-0.270734 0.028822 -0.490625 
-0.130584 0.187978 -0.194688 
-0.233966 0.026208 -0.454712 
0.26376 0.074337 0.131051 
-0.107357 -0.196067 0.1603 
0.078842 -0.211379 0.183293 
0.09402 -0.269281 -0.086669 
0.184525 -0.270696 -0.078168 
0.222901 -0.235562 0.150655 
0.265604 -0.039801 0.137066 
0.216867 0.032165 0.045904 
0.00364 0.014108 0.202339 
-0.229854 -0.137794 -0.471129 
-0.264081 -0.033533 -0.491039 
0.1702 -0.247868 0.265029 
-0.178593 0.13934 -0.136903 
0.213631 0.125906 0.199136 
0.190843 0.072966 0.20774 
0.163842 0.244392 0.415163 
-0.167901 0.157526 -0.108642 
0.233206 -0.109346 0.175445 
-0.108641 -0.191656 -0.136407 
-0.110241 0.210614 0.083159 
-0.164591 -0.113682 -0.182862 
-0.233367 -0.049626 -0.451424 
-0.139428 0.232664 -0.302277 
-0.080486 -0.226726 0.15593 
0.023884 -0.089559 0.012169 
-0.006716 0.201649 0.028212 
-0.011392 0.256505 0.052168 
0.027074 -0.243427 -0.130112 
-0.120353 -0.19415 0.026341 
-0.142508 0.14093 -0.178023 
0.010068 -0.09811 -0.001615 
0.076972 0.214041 0.047198 
0.127035 0.22983 0.470911 
-0.200893 -0.015723 -0.166458 
-0.199303 0.010137 -0.172234 
-0.14275 -0.152391 0.154852 
-0.035633 -0.053552 -0.005638 
-0.157043 -0.182918 0.123701 
-0.18151 0.138783 -0.021799 
-0.106664 -0.0272 0.168248 
0.153254 0.2525 0.408723 
-0.026025 0.083819 0.002597 
-0.228842 -0.162642 -0.456552 
0.125221 -0.173577 0.190356 
-0.163624 -0.10323 -0.133791 
0.171299 -0.253118 0.11002 
0.165168 0.268089 0.019132 
-0.169519 -0.224232 -0.369327 
0.073956 0.043109 0.203643 
-0.244138 0.172798 0.32422 
-0.113311 0.04003 0.000705 
0.251893 -0.081365 0.123305 
-0.068697 0.177404 0.171449 
-0.117433 0.213102 0.114172 
-0.230228 -0.145089 -0.426864 
-0.208754 0.170488 0.273319 
-0.25155 0.178404 0.439042 
0.136696 0.23507 0.034285 
0.021271 0.071412 0.201861 
-0.038494 0.208047 0.033657 
0.207929 0.054529 0.040405 
-0.271056 0.178167 0.405655 
-0.184405 0.093563 -0.184085 
-0.17125 -0.173818 -0.297747 
-0.055314 0.221929 0.172624 
-0.156893 0.022868 0.009936 
-0.142747 0.129885 0.147781 
0.122059 -0.180015 0.195384 
0.058201 -0.170861 0.018057 
0.028504 -0.056057 0.198313 
0.158853 -0.194972 0.406752 
0.128316 0.262385 -0.003331 
0.058018 -0.24384 0.150435 
0.050664 -0.272041 -0.119518 
-0.187548 -0.107021 0.133493 
-0.241578 -0.141996 0.353599 
-0.23543 0.026301 -0.449162 
0.17612 0.050824 0.022537 
0.079957 0.013036 0.209219 
-0.159726 0.162963 0.010987 
0.098607 -0.247351 0.162091 
-0.12142 -0.014392 -0.00551 
0.175324 0.249486 0.138286 
0.218151 0.24144 0.232069 
0.204434 0.260532 0.144483 
0.058661 0.088486 0.013433 
0.152298 -0.2439 0.043028 
0.184799 0.257028 0.040989 
-0.168302 -0.06636 0.142711 
0.090196 -0.26536 -0.107476 
-0.161653 0.15114 -0.042119 
0.113105 -0.051299 0.205942 
-0.164521 0.114171 -0.067027 
-0.020975 0.263286 -0.110495 
-0.240299 -0.077331 -0.482774 
-0.183563 -0.103288 0.060289 
0.181813 -0.209608 0.272313 
-0.213032 0.192289 0.308813 
0.268086 0.022239 0.095761 
0.218676 0.257494 0.073863 
0.13078 0.240813 0.176603 
0.111898 -0.295084 -0.126469 
0.140337 -0.255899 -0.054063 
0.022594 0.094017 0.009862 
0.152244 0.231894 0.494342 
0.036594 -0.279414 -0.137901 
0.177361 -0.204237 0.219658 
-0.158858 -0.097327 -0.105431 
0.17851 -0.067254 0.2153 
-0.094585 -0.078067 0.172588 
0.072229 -0.243767 0.17022 
-0.171774 -0.134934 0.02717 
0.21104 -0.241058 0.224083 
-0.252514 -0.015052 -0.458138 
-0.21352 0.004578 -0.210604 
0.10206 -0.260861 -0.04292 
0.132306 0.262925 0.097543 
-0.176357 -0.1264 -0.116245 
-0.200748 -0.162549 -0.446478 
0.094939 -0.258767 0.094651 
-0.168601 0.107174 -0.038303 
0.060796 0.226295 0.039305 
-0.255979 -0.088095 -0.490535 
0.195017 0.260122 0.243741 
-0.161993 -0.162296 -0.28816 
-0.218264 0.0259 0.096949 
0.058157 0.244688 0.051151 
-0.116894 0.000801 0.165438 
-0.14583 -0.156853 -0.204254 
0.12789 0.215974 0.061619 
0.116863 0.262026 0.135797 
-0.148651 -0.026532 0.164184 
0.081699 -0.079472 0.013501 
0.185481 -0.247807 0.256552 
-0.090975 -0.119177 0.013118 
0.077865 0.0742 0.009045 
0.234464 0.124146 0.164063 
-0.240057 -0.076582 -0.426278 
-0.094752 0.226326 0.075456 
-0.034237 -0.149735 0.012904 
0.165069 -0.225028 0.016745 
-0.017126 0.147508 0.001798 
-0.23468 0.149736 -0.42954 
-0.169868 -0.177406 -0.340198 
0.026011 -0.240114 -0.125592 
0.164848 -0.012984 0.212906 
0.098714 -0.103132 0.210839 
0.156603 -0.239219 0.235592 
-0.153309 -0.095458 -0.078859 
-0.167191 -0.091197 0.147026 
0.214333 -0.237592 0.168595 
-0.240734 -0.159812 0.308465 
-0.16495 -0.149637 -0.226777 
-0.20751 0.065363 -0.17412 
-0.029205 0.129346 0.01073 
-0.253466 -0.095747 -0.447848 
-0.179016 0.183046 -0.388074 
-0.245381 0.113339 -0.447204 
0.202958 0.26185 0.104475 
-0.152672 -0.12311 -0.000579 
0.147349 -0.245757 0.126688 
0.035411 -0.060073 0.208423 
0.137872 -0.235561 0.49994 
-0.230335 -0.153386 0.28418 
-0.077306 -0.140634 0.021099 
-0.165585 -0.150279 -0.08624 
-0.148012 -0.138692 -0.122612 
0.106234 0.257482 0.144142 
-0.058805 -0.219117 0.0305 
0.131791 -0.215645 0.42819 
-0.054378 0.175999 0.173008 
0.211883 0.002985 0.215012 
-0.187587 -0.149711 0.19887 
0.198417 -0.218053 0.060075 
-0.168147 0.15459 0.229995 
0.180583 -0.082648 0.041032 
0.174543 -0.225917 0.454346 
-0.182898 0.192334 -0.376389 
0.173573 0.02369 0.031625 
-0.140922 0.136708 -0.149372 
0.089387 -0.252136 0.10907 
0.016102 0.25343 0.042944 
-0.201254 0.138675 0.284102 
0.131299 0.056901 0.021843 
0.107532 0.019273 0.219691 
0.016677 -0.133646 0.189491 
0.142093 -0.241623 -0.033413 
0.04495 -0.066709 0.207673 
-0.209318 0.161459 0.343528 
0.253451 0.005797 0.078097 
-0.05558 -0.169163 0.175515 
0.164855 -0.252116 0.078261 
-0.136403 0.037 0.010997 
-0.19814 -0.155446 0.283056 
-0.252489 -0.042008 -0.493237 
0.061701 -0.271411 -0.099677 
-0.117522 0.172753 0.159899 
0.086453 0.053416 0.211762 
-0.059852 -0.192105 0.01289 
0.135797 -0.20218 0.432131 
0.13806 0.228085 0.453011 
0.169453 -0.244263 0.227431 
-0.269501 -0.178093 0.404773 
-0.048052 -0.054126 0.006412 
-0.181614 0.203597 -0.363933 
0.021323 0.035233 0.200172 
-0.151231 0.138229 -0.164114 
-0.008172 0.070345 -0.002494 
0.197259 0.2459 0.320657 
-0.233877 -0.056062 -0.488922 
0.228378 0.147156 0.143434 
-0.267398 -0.184631 0.441127 
0.013268 -0.22745 -0.110835 
-0.18161 0.16462 0.176896 
-0.172576 -0.151001 0.224197 
-0.214417 -0.05733 0.121858 
-0.169917 0.173824 0.098062 
-0.145278 -0.140914 0.003932 
0.171915 0.227679 0.061077 
0.035299 -0.162553 0.025178 
-0.071751 -0.011568 0.196264 
-0.078991 0.225174 0.037883 
-0.114214 0.218554 0.146693 
-0.228699 -0.017957 0.133074 
0.24385 -0.140116 0.079849 
0.250895 -0.039939 0.073243 
-0.093486 -0.042059 0.184842 
0.120866 0.237497 0.188581 
-0.120796 0.095485 0.017698 
-0.221535 -0.056806 0.079589 
-0.02571 0.196996 0.176861 
0.055177 0.036623 0.203543 
0.166656 -0.262217 -0.05893 
-0.088676 0.086881 0.18635 
0.143833 0.21896 0.042884 
-0.058819 0.220078 -0.135725 
-0.043602 0.062499 0.188047 
0.205647 -0.0295 0.03432 
0.221413 -0.259617 0.101839 
-0.265831 0.020576 -0.493367 
-0.202787 -0.05635 -0.184731 
0.164509 0.126499 0.201671 
0.069981 -0.049847 0.209255 
-0.209442 -0.033727 0.034342 
-0.166051 0.132423 0.008572 
-0.072495 -0.070831 0.183984 
-0.162953 0.232529 -0.324599 
-0.195266 -0.047759 0.021694 
0.103198 -0.270789 -0.035327 
-0.013397 -0.226947 0.0344 
0.225911 -0.064995 0.049009 
-0.054407 0.251473 0.089044 
0.133615 -0.266888 -0.023942 
-0.056789 0.149019 0.021239 
-0.266976 -0.009913 -0.478392 
-0.214587 0.106872 -0.434562 
-0.108143 0.189205 0.164088 
0.220799 0.264956 0.087142 
0.080931 -0.242244 0.172291 
-0.168382 -0.156885 0.124569 
0.004739 -0.036052 -0.003377 
-0.193111 -0.153895 0.239385 
0.254165 0.022415 0.17679 
-0.210499 -0.178314 -0.451478 
-0.15985 -0.032752 0.012949 
-0.135615 0.157049 0.152573 
0.163114 -0.224287 0.048894 
-0.121991 0.0609 -0.002072 
0.166688 -0.187217 0.18982 
0.04127 -0.143915 0.193362 
-0.048876 0.252547 -0.114271 
0.075166 -0.224736 0.170937 
0.048092 0.272525 0.093362 
7.2e-05 -0.124288 0.190785 
0.253118 0.040264 0.185824 
-0.182538 -0.112815 -0.085052 
0.072842 -0.133628 0.196933 
0.169138 -0.232546 0.365172 
0.025459 -0.222521 0.180579 
-0.122157 0.075713 0.013971 
-0.234058 -0.085045 -0.484448 
-0.126687 0.193696 -0.1584 
0.212065 -0.102006 0.200325 
-0.040042 -0.209788 0.16504 
-0.212886 0.057358 0.06937 
-0.180454 0.08997 0.152814 
0.230654 -0.161832 0.122307 
0.087762 -0.206275 0.182775 
0.177774 0.269261 -0.069419 
-0.1087 -0.091823 0.165844 
0.012485 0.271405 0.068669 
0.085898 -0.176265 0.194347 
-0.147695 -0.175514 -0.222663 
-0.020261 0.119567 0.01133 
-0.187554 0.199805 -0.364276 
-0.04792 -0.243478 -0.148816 
-0.169001 0.162284 -0.032659 
0.199366 0.266436 0.218256 
-0.19597 0.145227 0.169662 
0.155381 -0.202951 0.346043 
-0.085689 -0.171826 0.024164 
-0.131811 0.043755 0.009555 
0.039189 0.266987 0.070753 
0.191999 0.275938 0.085377 
-0.112372 0.161848 0.033048 
0.245036 0.13991 0.103332 
0.051426 -0.026658 0.207978 
0.090069 0.175607 0.028716 
-0.181063 0.021862 -0.18455 
0.064795 0.254902 0.053188 
0.07934 -0.095699 0.198469 
-0.103031 0.204899 -0.134044 
-0.167424 -0.139127 0.218099 
-0.186766 -0.167638 -0.226312 
-0.137719 0.101238 0.160402 
0.156049 0.256435 -0.01242 
0.152225 -0.211268 0.45639 
0.127594 0.253945 -0.088377 
0.171808 0.120444 0.044734 
0.214982 -0.264466 0.13761 
-0.206243 -0.163223 0.288578 
-0.049771 0.239842 0.041246 
-0.183305 0.115241 0.151207 
-0.205261 -0.137688 0.291234 
-0.182905 -0.106751 -0.072759 
-0.048599 0.221546 0.020523 
0.11053 -0.161363 0.044539 
0.098189 0.254428 -0.102528 
0.005131 0.233339 0.036072 
0.218374 0.228307 0.141468 
-0.071634 0.232825 0.141406 
-0.141888 0.157463 -0.131605 
0.071976 0.261336 -0.11013 
-0.168643 -0.064845 0.018123 
-0.226449 -0.151029 -0.425907 
0.097283 0.284557 -0.123791 
-0.184653 -0.06942 0.145811 
-0.069301 0.239876 0.081996 
-0.203492 -0.180668 -0.382472 
-0.002258 0.110907 0.190737 
-0.174116 0.127278 -0.060079 
-0.172526 0.22458 -0.372746 
0.222116 -0.060619 0.205749 
-0.090864 0.212982 0.150917 
0.019813 -0.150337 0.190717 
0.161923 -0.176104 0.184578 
-0.18813 -0.196935 -0.34438 
-0.113127 0.200387 0.059964 
-0.072333 0.036525 -0.004789 
0.119833 0.292163 -0.121107 
0.066763 -0.132067 0.016987 
-0.204058 0.128633 -0.434942 
-0.033091 0.246358 0.073004 
-0.239672 0.049061 -0.437925 
0.237853 -0.012503 0.060033 
-0.08381 -0.125328 0.16959 
0.074255 -0.25284 0.169794 
-0.126006 0.207523 -0.327043 
0.016869 -0.020764 -0.002996 
-0.193384 0.029831 -0.197196 
-0.153835 0.10523 0.160534 
0.116978 0.106486 0.025114 
0.154127 -0.250122 0.144457 
-0.238287 0.04311 -0.462995 
0.053058 0.25301 0.03994 
0.241049 -0.087654 0.174184 
-0.124647 -0.107838 0.160541 
-0.043537 0.142811 0.180323 
-0.054477 -0.113943 0.005793 
-0.084413 0.066014 0.009636 
-0.18391 0.169937 0.157889 
0.214697 0.268584 0.225968 
-0.045162 0.247961 0.124085 
0.049703 -0.241015 0.126813 
-0.191025 -0.071528 -0.16062 
-0.151739 -0.149348 0.011343 
0.179718 -0.232351 0.022388 
-0.19063 0.222615 -0.407443 
-0.259721 0.056396 -0.493363 
-0.120072 -0.142055 0.029042 
-0.108357 0.064317 0.180302 
-0.25006 0.164403 0.350555 
-0.223457 0.108794 -0.431531 
0.017528 -0.24119 0.116848 
-0.056868 0.156285 0.027765 
0.157768 0.253524 0.182766 
-0.176985 0.069229 -0.178664 
-0.026082 0.253365 0.164019 
-0.001616 0.231573 0.173664 
-0.188402 -0.183815 -0.342605 
0.253761 -0.01516 0.067288 
0.086831 -0.056256 0.006876 
-0.185758 -0.142888 -0.182713 
-0.111776 -0.079544 0.022103 
-0.014993 -0.142375 0.021125 
-0.079718 0.232998 -0.162742 
0.026197 -0.108714 -0.00054 
0.102713 -0.268194 -0.079133 
0.104568 0.030365 0.209377 
-0.15464 0.183216 0.061185 
-0.071507 0.177853 0.172512 
0.058421 -0.266377 -0.110987 
0.049667 0.119411 0.010903 
-0.25841 -0.01124 -0.446851 
-0.138589 0.072938 0.165738 
-0.229869 0.188095 0.360808 
-0.164334 0.165003 -0.266804 
0.046086 -0.162179 0.199544 
-0.146782 -0.199761 -0.327087 
0.258556 -0.030536 0.07788 
0.147223 0.232745 0.334656 
-0.142306 -0.182366 -0.245834 
0.080496 -0.238893 0.059768 
0.212674 -0.185335 0.193891 
-0.171102 -0.141172 -0.016821 
-0.062672 -0.150395 0.022921 
-0.140032 0.166435 -0.153085 
-0.076354 -0.029705 0.188722 
0.134267 0.263164 0.101443 
0.052914 -0.038737 -0.001704 
0.077993 0.252527 0.14791 
-0.16194 -0.151709 0.076377 
-0.191626 0.117813 0.076525 
-0.185508 -0.129345 0.13151 
-0.167173 -0.200381 -0.253098 
0.231713 0.200152 0.147125 
-0.104037 0.23068 0.058808 
0.155596 -0.229858 0.369413 
-0.025741 0.052731 0.188001 
-0.098059 0.167002 0.024977 
0.228835 0.163746 0.061078 
0.172193 0.248896 0.211649 
0.119596 -0.049594 0.016122 
0.167409 -0.252291 0.240137 
0.193154 -0.255295 0.20271 
-0.18007 -0.111211 -0.202759 
0.118261 0.159126 0.199405 
0.083868 0.075347 0.011062 
-0.134559 0.219747 -0.182044 
-0.096938 -0.19761 -0.120727 
-0.133993 -0.181279 -0.148978 
-0.234017 0.183336 0.370681 
-0.105131 0.031192 0.001346 
0.236164 -0.003777 0.209183 
-0.154049 0.137963 -0.184425 
-0.005409 -0.204984 0.024403 
-0.168442 0.151085 -0.208308 
-0.198226 0.025895 0.148034 
0.257096 0.033209 0.071285 
-0.17244 -0.118352 0.232223 
0.042929 -0.103179 0.199113 
0.173948 -0.197368 0.395142 
-0.042904 0.24845 0.034654 
-0.196916 0.015549 -0.176574 
-0.208476 0.027611 -0.170127 
-0.141984 -0.106709 0.02995 
0.001384 -0.263252 -0.112069 
-0.177562 -0.063871 0.154437 
0.079313 0.256033 0.129525 
-0.202434 -0.170329 -0.392432 
-0.138568 0.003859 0.161342 
0.152296 -0.253649 0.144046 
-0.177727 0.180251 -0.420616 
-0.18594 0.11248 0.142329 
-0.148537 0.108134 -0.045288 
0.11808 -0.253252 -0.114589 
-0.06562 0.167014 0.020528 
-0.248187 0.159435 0.370879 
-0.031584 0.108648 0.198587 
-0.173895 -0.160479 -0.18371 
0.176047 0.124972 0.196891 
-0.134034 0.114578 0.026001 
-0.167772 0.143159 -0.15588 
0.173143 -0.220165 0.241774 
-0.229989 -0.020101 -0.456857 
0.099759 -0.247965 0.138748 
0.153819 0.218888 0.060685 
-0.277009 -0.021158 -0.44207 
-0.190958 0.159792 0.287122 
-0.150188 -0.138447 -0.152323 
-0.104139 -0.12834 0.023455 
-0.25067 -0.148504 0.326447 
0.248395 0.16258 0.113054 
-0.155887 0.154253 0.19023 
-0.242763 -0.156962 0.315557 
0.244453 -0.048253 0.19987 
-0.075305 0.238858 -0.125404 
-0.188799 -0.032095 -0.170118 
-0.207898 0.008693 -0.179179 
0.170366 -0.234907 0.363694 
0.209141 -0.252273 0.138332 
0.164705 -0.216934 0.476925 
-0.161339 0.175341 0.096355 
0.15209 -0.257306 -0.094334 
0.149878 0.134307 0.200896 
0.20226 -0.093893 0.044017 
0.234973 -0.159351 0.106858 
0.007943 -0.194794 0.016254 
-0.170862 0.124157 -0.083424 
0.081532 0.053305 0.214833 
0.173668 -0.122445 0.190405 
-0.09447 -0.209751 0.061382 
-0.168897 -0.121557 0.170369 
0.093344 -0.260347 0.106098 
-0.187213 0.185596 -0.450288 
-0.165764 -0.2038 -0.31445 
0.135845 -0.247297 0.174328 
0.207751 -0.235418 0.174626 
0.231433 0.212019 0.151104 
0.076943 0.29118 -0.106943 
0.229471 0.061289 0.207775 
0.212642 -0.255719 0.161053 
0.081122 0.189294 0.187183 
0.193061 0.152567 0.185974 
0.201407 -0.245665 0.229636 
-0.171918 0.150435 0.221154 
-0.151838 0.190664 -0.189224 
0.049438 0.074708 0.005146 
0.092097 0.077206 0.0112 
-0.169099 0.192731 -0.308841 
-0.167667 -0.125482 0.230701 
-0.154714 -0.172366 -0.292125 
0.213216 -0.215661 0.182965 
-0.137783 0.086858 0.160504 
-0.103436 -0.159101 0.157117 
-0.13299 -0.188919 0.051777 
0.148553 0.217498 0.421169 
0.253899 0.097757 0.127889 
-0.045331 -0.24837 -0.136094 
0.173182 -0.231386 0.275875 
0.140924 0.252247 0.472859 
0.244089 0.158805 0.127504 
-0.046139 -0.171141 0.021282 
0.071932 -0.022534 0.216197 
-0.154108 -0.181769 0.128645 
-0.166294 0.163135 0.209241 
0.149411 -0.230589 0.364141 
0.064209 -0.256231 0.111409 
0.113745 0.056445 0.213613 
-0.00326 0.253763 0.1415 
-0.210796 0.143441 -0.457162 
0.155767 0.259845 0.175745 
-0.266695 0.013222 -0.456407 
0.113872 0.279714 -0.049898 
0.162497 0.262012 -0.093125 
-0.146592 -0.146219 -0.113819 
-0.061142 0.243395 0.0485 
-0.105265 0.121681 0.020495 
0.244051 0.079336 0.202967 
-0.157744 0.218183 -0.291268 
-0.123971 0.152722 0.042134 
0.247775 -0.096365 0.140945 
-0.017485 -0.040409 0.202439 
0.217114 -0.113172 0.048003 
-0.124519 0.17688 -0.216445 
0.156924 0.2478 0.35749 
0.119031 0.276178 -0.042346 
0.153346 -0.268054 -0.108273 
-0.170302 0.128988 0.168571 
0.156741 -0.110904 0.03381 
0.201798 0.261416 0.285374 
-0.143482 -0.186179 0.14404 
0.166927 -0.250979 0.12274 
-0.039069 -0.241521 -0.104593 
0.152237 0.23441 0.48395 
0.211037 -0.175405 0.062 
0.09843 -0.262949 -0.056817 
0.164024 -0.211462 0.050443 
0.220484 -0.183423 0.136693 
-0.264462 0.174763 0.362011 
-0.008916 0.061495 0.182927 
0.234655 -0.189901 0.082304 
0.033525 0.255602 0.17273 
0.20755 -0.227604 0.185427 
0.269147 -0.01176 0.131249 
-0.16472 0.183013 0.122286 
0.053666 0.251403 0.110139 
0.164283 -0.228674 0.423159 
-0.14415 0.200676 -0.170124 
0.114904 0.271259 -0.059031 
0.079213 0.258216 -0.124922 
0.110374 0.250508 0.163736 
0.130703 -0.007222 0.021084 
-0.019117 0.116098 0.008795 
0.12917 0.237048 -0.025961 
0.168151 0.26064 0.123373 
0.216791 0.053052 0.217264 
0.10201 -0.286386 -0.114967 
-0.248348 0.02559 -0.44168 
0.015157 0.270351 -0.111065 
0.166742 -0.210651 0.293995 
-0.08454 -0.214824 -0.134074 
0.123737 -0.218794 0.040867 
-0.151734 -0.183652 0.041392 
-0.01403 0.275184 -0.135304 
-0.16122 0.181913 0.105168 
-0.060344 0.132468 0.014138 
-0.207051 0.177656 -0.461799 
-0.139854 0.206958 -0.207841 
-0.214288 -0.025652 0.071813 
-0.041641 -0.103819 0.178215 
0.048629 0.028123 0.013434 
-0.145138 -0.149955 -0.10669 
-0.174506 0.157195 0.027551 
-0.014198 0.147661 0.183343 
-0.217833 -0.120783 -0.442764 
-0.058979 -0.218052 -0.117289 
0.198843 -0.239025 0.282806 
-0.173494 -0.17935 -0.264114 
-0.113434 -0.008499 0.174755 
-0.243258 -0.142881 0.400451 
0.099958 0.261795 0.127641 
-0.159784 -0.159893 -0.246892 
0.238952 0.099979 0.191774 
0.097331 0.185157 0.190967 
0.144231 0.065997 0.214386 
0.148075 0.279819 -0.070219 
-0.184227 0.042735 0.145399 
-0.165189 0.147069 0.226555 
-0.012875 0.217553 0.039394 
0.157533 -0.228822 0.333705 
0.23878 0.13073 0.128235 
0.134893 0.112154 0.208338 
-0.144152 0.171862 -0.15594 
-0.213414 -0.176546 -0.454193 
-0.097319 0.13044 0.024436 
0.16904 0.050615 0.214965 
-0.244796 -0.145955 0.349856 
0.221525 0.10589 0.204872 
-0.138689 -0.202601 -0.179726 
-0.210689 0.110627 -0.442519 
0.237004 -0.09581 0.147772 
0.181843 -0.249251 0.138886 
-0.109919 0.006379 -0.003305 
0.240079 0.222032 0.075175 
-0.073363 -0.080989 0.177771 
-0.151215 0.112184 -0.056113 
-0.116763 0.081884 0.172075 
-0.254971 0.113445 -0.480829 
0.001348 0.046058 0.195316 
0.154764 0.289865 -0.078132 
-0.251443 -0.14859 0.409451 
0.015357 -0.134044 0.187887 
-0.163313 0.127745 -0.136516 
0.231954 -0.015724 0.212369 
-0.140764 -0.172361 0.047528 
0.136394 0.25222 0.12704 
0.178845 0.00267 0.025565 
-0.098788 0.167225 0.174527 
-0.010289 0.245643 0.098303 
0.20271 0.200885 0.198661 
-0.135406 0.143581 0.038704 
0.055656 -0.185324 0.187556 
-0.169573 -0.212679 -0.322209 
-0.059123 -0.224793 -0.135116 
-0.031528 -0.14769 0.022675 
0.166397 0.244658 0.38094 
-0.048158 -0.046022 0.186846 
-0.148661 0.209938 -0.166963 
0.079821 0.188127 0.198103 
0.126974 -0.246449 0.006719 
0.05223 0.263638 0.052356 
-0.186163 0.178267 -0.422889 
0.030077 -0.010055 0.213126 
0.157004 0.269984 -0.084829 
-0.123541 0.213374 0.042204 
0.205012 0.031396 0.042108 
-0.233475 -0.109708 -0.425556 
-0.213924 0.173415 0.360621 
-0.132739 0.150992 0.005315 
0.121702 -0.121511 0.032412 
-0.118188 -0.178516 0.040476 
-0.088718 -0.215787 0.043037 
0.120624 0.277637 -0.073945 
-0.047006 -0.248298 -0.137906 
-0.214218 0.188254 0.313795 
0.244836 -0.111479 0.160998 
0.207244 0.258123 0.16618 
-0.154586 0.150093 -0.069921 
-0.249871 -0.077799 -0.442844 
-0.178585 -0.105777 -0.077504 
-0.192724 -0.162508 0.30091 
-0.194649 0.206999 -0.432163 
0.032274 0.157145 0.190402 
0.23782 0.14999 0.162352 
-0.079546 -0.029061 0.002844 
-0.086017 -0.21354 0.148272 
-0.002347 0.242855 -0.129203 
0.184021 0.10282 0.204004 
0.053103 -0.249916 0.170338 
0.051898 0.245638 -0.115136 
-0.205945 -0.177436 -0.448226 
0.183492 0.249734 0.320282 
-0.185563 0.110864 -0.173218 
0.131481 0.239372 0.396538 
0.075925 0.056378 0.208317 
-0.163078 -0.163629 -0.267326 
0.095517 -0.291355 -0.121461 
-0.133505 -0.164225 0.040269 
-0.206943 -0.01989 0.04777 
0.162701 0.244132 0.486412 
-0.008402 -0.231148 0.179927 
-0.270351 -0.035322 -0.476126 
0.212003 -0.249071 0.095562 
0.190013 -0.217216 0.223862 
-0.162123 -0.207532 -0.363668 
-0.005378 0.134182 0.007519 
-0.270273 0.029866 -0.479514 
-0.135479 -0.20187 -0.192065 
0.115614 -0.225178 0.181528 
0.004652 0.139029 0.192125 
0.182099 -0.02032 0.212617 
0.271346 0.064616 0.095292 
-0.165764 -0.158631 -0.184514 
-0.162819 -0.15782 0.09435 
0.08381 -0.279141 -0.12667 
0.187918 -0.247837 0.153256 
-0.045423 -0.204148 0.025228 
-0.048754 0.036791 0.198768 
-0.24919 -0.143653 0.39562 
0.201593 -0.209045 0.252272 
-0.05469 -0.10741 0.003936 
-0.133099 0.15086 0.037731 
0.220629 -0.253641 0.139831 
0.171541 0.236366 0.441621 
0.158652 0.183222 0.052849 
0.223993 -0.098434 0.201624 
-0.231163 0.092573 -0.440689 
0.110213 -0.238782 -0.015035 
-0.107726 0.100328 0.17805 
0.166131 0.033347 0.03112 
0.231104 -0.128973 0.161393 
0.165581 -0.218094 0.433378 
0.084387 -0.014857 0.203369 
-0.225176 0.169052 0.338035 
0.082879 0.23829 0.043294 
0.168448 0.239582 0.376385 
-0.016818 -0.058281 0.003927 
0.175423 -0.274449 -0.112167 
0.239958 0.180609 0.080509 
-0.219106 0.157094 -0.465259 
-0.016746 0.242475 0.140061 
0.218807 -0.046254 0.043658 
-0.061714 0.238846 0.137083 
0.200332 -0.213884 0.063073 
-0.250578 0.001259 -0.462837 
0.273532 -0.017225 0.117211 
0.190531 0.258775 0.208945 
0.197863 -0.138391 0.199697 
0.136739 -0.177556 0.188077 
0.189384 0.226673 0.342247 
-0.214965 0.078126 -0.450632 
-0.211091 -0.041674 0.141284 
-0.167568 -0.109156 0.036515 
0.125772 -0.279362 -0.107673 
0.049137 0.085195 0.20627 
-0.199098 -0.148122 -0.417468 
0.074579 -0.289929 -0.115467 
0.13561 0.245428 0.442692 
-0.248004 0.167847 0.398306 
0.133642 -0.22163 0.446552 
0.169581 0.165222 0.043278 
-0.218867 -0.170762 0.294878 
0.254434 0.132152 0.096222 
-0.143928 0.22749 -0.37188 
0.190327 0.226684 0.07116 
0.215129 -0.236931 0.163806 
0.174431 0.042832 0.199211 
0.123949 -0.054752 0.02039 
-0.215111 -0.000772 -0.169879 
-0.059813 0.063901 0.181453 
-0.237952 0.165988 0.395146 
-0.095062 0.099177 0.170372 
-0.265245 0.089218 -0.465814 
0.174109 0.173876 0.03704 
-0.059717 -0.054984 0.183989 
-0.241554 0.193493 0.401947 
-0.14388 0.125593 0.160187 
0.204996 -0.171638 0.060297 
-0.071512 0.05033 -0.001221 
0.154721 0.267122 -0.011292 
-0.14177 -0.137834 -0.142618 
-0.164476 -0.14672 0.169674 
-0.188706 -0.174401 -0.334134 
0.146971 0.293539 -0.081175 
-0.052911 0.096517 0.184453 
0.062778 -0.032236 0.207705 
-0.024122 0.086926 0.188017 
-0.176715 0.144224 -0.184276 
-0.165101 -0.15667 -0.20007 
-0.151413 -0.170081 0.101384 
0.102221 0.172518 0.192042 
-0.129567 0.162626 0.043335 
-0.179507 0.144321 -0.076103 
-0.224337 0.05093 0.114572 
-0.171823 0.019744 0.023751 
0.207716 -0.246702 0.158908 
0.251583 -0.09715 0.091166 
0.162942 -0.252252 -0.013487 
-0.113703 0.073887 0.005423 
-0.201225 -0.123228 0.170706 
-0.190848 -0.121808 0.258415 
-0.151559 0.107199 0.155055 
-0.166986 0.17903 0.042883 
0.150325 0.230518 0.011716 
-0.118803 -0.143424 0.152026 
-0.216401 -0.026156 0.068928 
-0.065047 0.115395 0.010468 
-0.211134 0.062103 0.068581 
-0.166913 0.120088 0.029629 
0.145005 -0.233481 0.364398 
-0.223704 -0.160801 -0.473068 
0.272733 0.004514 0.083298 
-0.176267 -0.119014 0.031681 
-0.010963 0.108908 0.014218 
0.18536 -0.214938 0.064688 
-0.19304 -0.122889 0.118753 
-0.159629 0.181888 0.057302 
0.11078 0.096611 0.216417 
-0.075757 0.024918 0.007737 
-0.000779 -0.104163 0.005448 
0.122354 0.209766 0.058599 
-0.074386 -0.197186 -0.128534 
-0.244882 -0.168385 0.412932 
-0.208184 -0.053955 0.08653 
0.206951 0.229244 0.205877 
-0.140745 -0.112054 -0.037209 
-0.181783 -0.15427 0.243362 
-0.232431 -0.07834 -0.431634 
0.270552 -0.029422 0.169832 
-0.129773 0.207803 0.137336 
0.14986 -0.254428 -0.097317 
-0.093734 -0.208922 0.118801 
-0.135406 0.212827 -0.267848 
-0.001589 -0.010906 0.204417 
-0.157499 0.181399 -0.192755 
0.149904 -0.196436 0.060276 
0.224317 -0.170184 0.114832 
-0.122564 -0.021345 0.000862 
0.193929 -0.012244 0.036287 
0.102897 0.093643 0.207359 
-0.093382 0.117377 0.178785 
-0.163537 -0.104849 -0.043689 
-0.13397 0.228086 -0.15926 
-0.072617 0.061559 -0.004964 
-0.099216 -0.035369 0.181594 
0.133756 -0.273888 -0.060139 
0.200063 0.239979 0.30075 
-0.039382 -0.242217 0.062892 
-0.16077 -0.103341 -0.04024 
-0.070634 0.139698 0.021381 
0.044838 0.074684 0.000594 
-0.096555 -0.048596 0.010406 
-0.149374 -0.114735 0.00207 
-0.233279 -0.020468 -0.441203 
0.043791 0.110922 0.200698 
0.037074 0.261334 0.063307 
-0.267823 -0.082974 -0.492451 
-0.038169 0.144678 0.19638 
0.155927 0.294931 -0.084689 
-0.201164 0.116226 0.101123 
-0.216936 -0.149867 0.249065 
0.253153 -0.039261 0.069668 
0.152677 -0.254642 0.118177 
-0.103765 0.210304 0.158629 
0.126661 0.145815 0.034365 
-0.070638 0.236357 0.075912 
-0.204534 0.153706 -0.44043 
0.171281 0.256386 0.17067 
0.022967 -0.01274 -0.00286 
-0.063637 0.236536 0.09867 
-0.111143 -0.20626 0.127189 
0.252797 0.131841 0.089539 
0.254237 0.051456 0.167903 
-0.20072 -0.070267 -0.162817 
0.173236 -0.224162 0.382211 
0.155982 0.025007 0.028617 
0.14785 0.227307 0.486309 
-0.035456 -0.237077 0.083334 
-0.130987 -0.114653 -0.039788 
-0.15284 0.191679 -0.172282 
0.155403 -0.221249 0.065998 
-0.165217 0.144939 -0.208114 
0.134677 0.258285 -0.093243 
-0.006541 -0.202553 0.037788 
0.035836 0.004147 0.201983 
0.107873 -0.032537 0.008012 
0.112303 0.145701 0.204012 
-0.245815 -0.151806 0.346619 
0.20833 0.269176 0.079736 
0.102677 -0.14675 0.025083 
0.092967 0.042483 0.015448 
0.155063 0.071897 0.024977 
-0.145011 -0.169554 0.138518 
-0.214528 -0.065364 0.128372 
0.179015 0.272363 -0.101691 
-0.246484 -0.184072 0.387607 
0.144449 -0.242743 0.139938 
-0.164425 0.190288 -0.212034 
0.132298 -0.252933 -0.038602 
0.191982 -0.199268 0.205425 
-0.182823 -0.133103 0.06626 
-0.025245 -0.028188 0.198611 
0.134815 0.218907 0.400091 
-0.075524 -0.054382 0.182415 
0.100817 0.188391 0.040641 
-0.090591 -0.222323 -0.153652 
-0.027019 -0.1471 0.008852 
0.190251 0.221797 0.249867 
-0.029155 -0.015537 0.004496 
0.049097 0.120876 0.006735 
0.038514 -0.100808 0.014504 
0.024996 -0.242035 0.168644 
-0.1585 0.16667 -0.127385 
-0.144425 -0.146911 -0.144968 
0.165214 0.230671 0.275615 
-0.175062 -0.153303 -0.139368 
-0.104202 -0.20705 0.1268 
0.059501 -0.260433 -0.112323 
0.128127 -0.255451 0.125336 
0.149012 -0.235345 -0.018293 
0.171614 -0.249106 0.285136 
-0.151621 0.037234 0.017167 
0.219345 0.230509 0.168865 
0.208711 -0.203985 0.209353 
0.135594 0.260212 0.451576 
-0.013194 -0.238429 0.163771 
-0.098817 -0.197665 0.052984 
-0.078003 -0.037057 0.005304 
0.171306 0.21381 0.41685 
-0.108056 0.207932 -0.196606 
0.008424 0.172321 0.191994 
-0.235566 0.192118 0.368996 
-0.241987 0.193595 0.359429 
-0.120322 -0.153454 0.028064 
-0.19493 -0.109316 0.099256 
0.089475 0.088332 0.016322 
0.098899 0.191149 0.046354 
-0.196687 0.17649 0.267699 
0.268592 0.058634 0.111401 
0.015996 -0.177095 0.016068 
0.102845 0.16355 0.197086 
0.024911 -0.068451 0.003609 
-0.175678 -0.116625 0.200364 
0.077473 -0.047299 0.009655 
0.146532 0.228926 -0.010295 
-0.122083 0.020218 0.003427 
0.177042 0.016473 0.022428 
0.053653 -0.065281 0.001046 
0.155954 -0.205924 0.499986 
0.071629 -0.199273 0.18697 
0.078387 -0.068454 0.011204 
-0.136309 -0.001255 0.174162 
0.171277 0.263504 0.299659 
-0.197642 -0.126968 0.164523 
-0.097275 0.121632 0.011004 
-0.137223 0.132413 -0.078334 
-0.168025 -0.106066 -0.136663 
0.150743 -0.238191 0.33881 
-0.245279 -0.00094 -0.445368 
0.151069 -0.156421 0.049668 
-0.143413 -0.183138 -0.1948 
-0.211121 -0.161494 0.301492 
-0.11938 0.109213 0.160127 
0.079232 0.049253 0.008443 
0.063121 0.138752 0.190559 
-0.230568 0.195223 0.319418 
0.065653 0.023976 -0.003079 
0.194009 -0.219257 0.307051 
-0.192615 0.109012 0.123964 
0.131914 0.180231 0.184879 
-0.189614 0.124822 0.129776 
-0.263557 -0.086302 -0.44735 
0.004433 0.126401 0.020605 
-0.098699 0.101218 0.015725 
-0.179702 -0.206463 -0.306388 
0.172414 0.094601 0.208749 
0.215801 0.215279 0.063257 
0.137226 0.223374 0.370766 
0.198839 0.136923 0.05828 
-0.067474 0.22235 -0.131825 
0.116366 0.245945 -0.032086 
-0.1982 -0.103644 0.096915 
-0.138086 -0.077153 0.166856 
-0.159653 0.193044 -0.384439 
0.052983 0.257952 0.117049 
-0.054335 0.121815 0.1768 
0.01554 -0.242937 0.141294 
-0.162243 -0.003647 0.016789 
0.252393 0.092366 0.161298 
0.060723 -0.230562 0.052791 
-0.073828 -0.018933 0.009071 
-0.227895 0.17797 0.374472 
0.188195 -0.1919 0.059566 
0.252953 0.069185 0.200284 
-0.178167 0.146654 -0.065155 
0.029285 -0.088666 0.206899 
0.112576 -0.157128 0.031899 
-0.145115 -0.172378 -0.297669 
-0.196656 0.164685 0.172071 
0.134846 -0.213847 0.49486 
-0.211433 -0.063577 0.083254 
-0.090317 0.217009 0.038474 
0.143273 0.056582 0.026222 
-0.050149 0.136372 0.005297 
-0.152886 -0.163261 0.056226 
0.193356 -0.111925 0.039968 
0.084229 -0.180438 0.035967 
-0.191262 -0.102895 0.041198 
-0.141538 0.208471 -0.328145 
0.14277 -0.258077 -0.124838 
0.132448 -0.251511 0.096462 
-0.020372 0.140186 0.022462 
-0.03784 -0.200167 0.170041 
-0.211048 0.140669 -0.458197 
-0.119445 -0.203351 0.147378 
-0.009617 0.225376 0.032658 
-0.132608 0.15293 -0.009643 
-0.158356 0.171989 -0.242112 
-0.188465 -0.195508 -0.33424 
0.117196 -0.072431 0.215603 
-0.156758 0.15929 -0.005654 
-0.197621 0.196504 -0.417868 
-0.125375 0.178252 -0.158943 
-0.181949 -0.106201 -0.202672 
0.068233 0.037629 -0.001803 
-0.096512 -0.212072 -0.118108 
-0.124353 -0.175601 0.150671 
0.239082 0.186536 0.084121 
-0.071664 0.160422 0.177206 
-0.166882 -0.102573 -0.161594 
0.113065 0.256129 -0.052293 
0.163906 0.216585 0.430565 
-0.262406 0.034161 -0.444808 
0.259864 0.064076 0.077403 
-0.015206 -0.157829 0.180416 
-0.166346 0.128202 -0.187178 
0.171999 -0.298572 -0.085051 
0.175182 0.258168 0.262721 
0.278691 0.004384 0.093731 
0.214232 0.213387 0.068865 
0.257333 -0.081871 0.151533 
-0.218812 -0.138304 0.267166 
0.062003 -0.021827 0.002108 
0.167053 0.295292 -0.070492 
0.009947 0.158033 0.198581 
-0.193348 -0.151998 -0.419732 
-0.105282 -0.168751 0.155848 
-0.16676 0.18218 -0.227469 
-0.208213 -0.045777 0.120258 
0.034211 -0.243846 0.124141 
-0.237274 0.184234 0.414703 
-0.184374 0.001973 0.006876 
0.241503 -0.060787 0.206163 
-0.23767 -0.148369 0.306952 
-0.002406 0.154887 0.185688 
-0.147127 0.193466 0.108298 
0.156789 0.260578 0.071751 
0.082853 -0.023888 0.00673 
-0.041937 -0.213273 0.168956 
-0.23856 -0.013717 -0.440812 
0.250931 0.168281 0.07618 
0.121061 0.284099 -0.127336 
-0.20142 -0.145508 0.207392 
0.244208 -0.055501 0.188182 
0.148091 -0.228718 0.495227 
-0.077558 -0.225563 0.03953 
-0.161489 -0.172184 -0.33649 
-0.233582 -0.162906 -0.450613 
0.178066 -0.228543 0.34812 
-0.134703 0.22657 -0.32446 
-0.136924 0.196049 0.133365 
-0.154252 -0.102858 0.01126 
0.184045 0.263348 0.122508 
0.203939 0.223117 0.209897 
0.168634 -0.067613 0.210241 
-0.028775 0.050681 -0.001811 
-0.023036 -0.07538 0.008815 
0.101201 -0.026592 0.215821 
-0.180845 0.207294 -0.416875 
-0.109137 -0.146543 0.162545 
-0.183349 0.069213 -0.18293 
0.209022 -0.234291 0.279132 
0.137745 0.198128 0.192192 
-0.087615 -0.048729 0.183653 
0.225697 -0.085917 0.057177 
-0.194202 -0.034919 0.137316 
0.196622 -0.19063 0.063217 
0.078332 0.25574 -0.128738 
0.226606 -0.223559 0.132285 
-0.274852 0.17468 0.445463 
-0.258074 0.071776 -0.458634 
0.212883 0.110336 0.048586 
0.149797 0.264089 0.127402 
-0.170558 -0.155956 -0.118878 
0.237552 -0.174513 0.075004 
-0.17181 0.111786 -0.173985 
0.141437 0.261524 -0.111667 
0.069633 -0.239819 0.045119 
0.266946 0.053624 0.115999 
-0.173167 -0.150826 -0.22048 
-0.039299 -0.09203 0.005978 
-0.184049 -0.193713 -0.312469 
-0.020006 -0.229742 0.043481 
-0.195592 0.146527 0.163745 
0.132563 -0.283801 -0.07068 
0.220548 0.165752 0.059917 
-0.109882 0.218612 0.115011 
-0.211923 -0.139236 0.238272 
-0.083535 0.231522 0.130972 
-0.233716 0.130046 -0.4308 
-0.206699 0.07798 -0.167904 
-0.060232 0.237053 -0.148237 
0.004767 0.132548 0.186524 
-0.180369 -0.165888 0.131691 
-0.143833 -0.187853 -0.299313 
0.135376 -0.240907 0.108151 
0.274788 0.002095 0.132485 
0.155496 0.083751 0.207455 
-0.233579 -0.178227 0.416102 
-0.158231 -0.107729 0.154241 
-0.132915 0.140664 0.03118 
0.091201 0.280102 -0.139277 
0.063067 -0.254613 -0.122784 
-0.187586 0.138589 0.141979 
0.011076 -0.270914 -0.130441 
-0.190029 -0.146419 0.106072 
-0.193527 0.200247 -0.378487 
-0.068895 0.09687 0.016161 
-0.21341 -0.154377 0.273052 
0.120202 0.258995 0.091664 
-0.236887 -0.15527 -0.417001 
-0.210999 -0.058422 0.097789 
-0.053951 -0.195693 0.162011 
-0.174943 -0.167616 0.106141 
0.102016 -0.277623 -0.111465 
0.049018 -0.276808 -0.120074 
-0.220734 -0.134215 -0.473414 
-0.180226 -0.181052 -0.372389 
0.128351 0.243779 -0.034466 
0.122552 0.238502 0.056768 
0.048957 0.259921 -0.106494 
-0.155264 0.171433 0.026131 
0.018386 0.012812 0.001157 
-0.118461 -0.120324 0.035355 
0.12294 -0.285193 -0.095326 
0.175049 0.224882 0.235142 
0.015161 0.279676 -0.115471 
0.032845 -0.113541 0.01377 
0.241045 -0.10544 0.177025 
-0.155595 0.112194 -0.030847 
0.102432 0.076692 0.009158 
-0.030632 -0.096323 0.179314 
