-0.011209 -0.018820 0.184103
0.139736 0.280123 -0.164806
-0.157346 -0.320315 0.058241
0.026878 0.111049 -0.351475
-0.151137 -0.330147 -0.055766
0.238734 0.274344 0.131993
-0.178724 -0.342497 -0.012905
-0.079455 -0.285113 -0.284505
0.101524 0.308298 -0.054751
0.293117 0.314096 -0.222815
0.259465 0.205084 0.327615
0.245507 -0.165909 -0.054397
-0.119042 -0.024979 -0.243555
0.317888 -0.084333 0.328766
0.441627 0.109203 0.365098
0.093666 -0.229488 0.050440
-0.134857 -0.248982 -0.186707
-0.213026 -0.375956 -0.019124
0.432925 -0.063994 0.037718
-0.471757 -0.181034 -0.125827
-0.019241 0.092592 0.233135
0.457741 0.024153 0.004475
0.132462 -0.237517 0.202836
0.222652 0.247944 -0.139843
0.357547 0.050612 0.442451
0.484617 0.075923 0.134062
0.088988 0.288448 0.228319
0.115789 0.399934 -0.126994
0.104554 -0.221421 0.176457
0.029500 -0.153580 -0.049941
0.158593 -0.051657 -0.308870
0.348679 -0.118361 -0.039396
-0.102105 -0.129180 -0.151713
0.311170 -0.040950 -0.107638
0.326013 0.084725 -0.133146
0.188162 -0.224230 0.010729
0.000621 -0.247832 -0.205242
0.174989 -0.085471 0.359192
0.459539 0.218651 -0.102650
-0.100670 -0.056715 -0.146758
0.232790 -0.220289 0.210433
0.169205 -0.141487 -0.303246
-0.027570 -0.109263 0.038132
-0.015588 -0.171305 -0.409145
-0.066761 0.159799 -0.133656
-0.469915 -0.161580 -0.098636
0.444238 0.055291 0.304214
-0.043828 -0.010701 0.118733
0.205241 -0.175895 0.278657
0.418307 0.200304 0.021274
-0.167392 -0.186080 -0.289080
0.263855 0.246336 0.286818
-0.086279 -0.080110 -0.077222
0.071018 0.233369 -0.203190
0.113398 0.277710 0.011025
0.316873 0.063846 0.446123
-0.039348 -0.042970 0.112930
0.068025 -0.214476 0.097611
-0.099035 -0.236655 -0.369407
0.069194 0.257577 0.021155
0.039227 0.217026 0.027089
0.215710 0.239935 0.308421
-0.475266 -0.159912 -0.090752
0.367810 -0.011358 0.390601
0.342342 0.249581 -0.068361
0.137070 -0.166531 0.302735
0.325854 0.293558 -0.187372
0.082253 0.292365 0.204689
0.004526 0.108850 -0.330092
0.410874 0.039135 -0.040519
0.248388 0.124436 -0.232563
0.081486 -0.173372 -0.046826
0.456134 0.126182 0.232745
0.272047 0.175845 -0.191271
-0.451936 -0.194508 -0.155661
0.363439 -0.157533 0.164950
-0.283679 -0.242565 -0.218085
-0.001330 -0.218741 -0.197955
0.025345 0.146992 0.260437
0.127585 0.338542 0.179475
0.204818 0.295942 0.175591
0.038575 0.023040 -0.365788
0.339977 0.255857 -0.261001
0.265309 0.296676 -0.004451
0.001260 -0.279316 -0.378755
-0.012049 0.155976 0.010235
0.068458 0.321646 0.032249
0.055285 0.299620 0.151591
0.254381 0.337400 -0.203293
0.442881 0.223929 -0.058289
-0.268817 -0.178199 -0.153096
0.241310 0.156625 -0.235999
0.197559 -0.141923 -0.111777
0.028258 -0.179107 0.147708
0.186594 -0.089729 0.352730
0.255594 0.060738 -0.259887
0.402434 0.101084 0.418463
-0.116226 -0.250372 -0.061621
0.388140 -0.124025 0.024032
0.284399 0.315457 -0.147122
-0.182724 -0.146432 -0.203903
0.020639 0.204282 -0.273215
0.232259 0.295215 0.068805
-0.019487 0.168736 -0.291331
-0.196812 -0.232076 -0.240541
0.250715 -0.233904 0.144538
-0.046889 -0.003529 0.113269
-0.299741 -0.211870 -0.251519
-0.141534 -0.234299 -0.282549
-0.462203 -0.218778 -0.108717
-0.036842 -0.282359 -0.323279
0.450794 0.217737 -0.026857
0.175744 0.120246 0.355004
0.238751 0.053180 -0.297338
-0.122184 -0.303604 -0.102241
0.111670 0.293949 -0.020731
-0.077351 0.145702 -0.230576
0.033387 -0.193145 0.107887
0.181285 -0.054899 -0.303972
0.067838 0.263726 -0.083814
-0.108278 -0.175231 -0.160587
0.321959 0.280280 -0.266652
0.178843 -0.017655 0.385029
-0.082316 -0.091737 -0.124474
-0.061720 0.000979 0.076457
0.375355 -0.048508 0.301889
0.262339 -0.217233 0.195872
0.398319 0.204400 0.101342
0.073444 0.234884 -0.010452
0.211972 -0.088909 -0.147539
0.289605 -0.166092 0.282339
-0.316700 -0.166962 -0.134479
0.225453 0.322010 -0.034086
-0.085388 -0.031361 -0.346341
-0.466955 -0.192807 -0.081552
0.217317 0.341110 -0.079037
0.354293 0.277107 -0.191660
0.450444 0.153620 0.294695
0.216895 -0.241496 0.139610
0.443792 0.194423 0.089065
0.151269 0.267462 0.292175
0.043469 -0.184772 -0.167110
-0.059344 0.026105 0.036785
-0.122021 -0.323364 -0.119015
0.314668 -0.074219 0.328973
-0.211865 -0.142630 -0.177975
0.285299 -0.159339 -0.011332
0.287836 0.029915 -0.171341
0.375654 0.275964 -0.202315
0.136864 -0.168778 0.294462
0.105974 0.311551 0.185178
0.011154 0.170572 0.245389
0.336269 -0.087339 -0.086692
-0.033533 -0.016815 0.147098
0.093126 0.272384 -0.080798
0.063534 0.216180 0.259107
-0.134727 -0.065305 -0.283388
-0.056686 0.140984 0.047419
0.447676 -0.034957 0.140570
0.057749 0.282512 0.187173
0.274361 0.043491 -0.227522
0.429900 -0.015374 0.256823
0.105482 -0.073544 -0.398828
0.486652 0.117934 0.166397
0.374676 0.234644 0.209550
0.286458 0.192572 0.381784
-0.065375 -0.186996 -0.145410
0.106184 0.253573 -0.011783
0.041115 0.037349 0.300078
-0.118070 -0.059716 -0.203178
0.427179 0.232703 -0.131466
-0.438304 -0.203283 -0.204070
0.073181 -0.079504 0.312420
-0.052780 -0.049550 0.088519
-0.136630 -0.238635 -0.173623
0.086521 -0.257393 -0.345414
0.282243 0.280037 0.277341
0.370392 -0.095218 -0.068090
0.489939 0.172382 0.087414
-0.112476 -0.304146 -0.005053
0.219389 0.293174 0.286051
0.186621 0.123261 0.363862
-0.051988 0.062813 0.181447
0.354392 0.197406 0.370453
0.087675 -0.091436 -0.440811
0.306672 0.295421 -0.059798
0.350721 -0.160475 0.183302
0.327863 -0.048348 0.341042
0.098637 0.241699 -0.192586
0.370277 -0.140588 0.227507
0.312494 0.257171 0.288386
0.232266 0.292972 0.276468
-0.038437 0.196503 0.054204
0.417748 0.089025 0.416169
-0.239537 -0.153288 -0.240840
0.354971 0.243777 0.284071
0.120939 0.363122 -0.059984
0.103761 0.146174 0.320019
-0.274857 -0.144380 -0.213892
0.459270 0.014959 0.113506
0.392922 0.188263 0.351128
0.019905 -0.162709 0.180097
-0.269486 -0.192988 -0.248890
-0.487479 -0.226599 -0.113537
-0.244701 -0.217551 -0.178826
0.279540 0.236380 0.302070
0.367589 0.231836 0.057893
-0.468330 -0.174238 -0.100715
0.256099 -0.149059 -0.040170
-0.427643 -0.159512 -0.091171
-0.047433 0.052050 0.117043
0.215922 -0.121037 0.341389
0.479176 0.122287 0.186048
0.265132 0.320233 -0.201587
0.141210 -0.128730 -0.177515
0.400944 -0.106327 0.133985
0.140859 -0.162697 -0.096207
0.025137 -0.218818 -0.424133
0.343608 -0.009271 -0.100591
-0.089666 -0.080014 -0.131782
0.317440 -0.118820 0.316434
-0.281999 -0.216106 -0.243181
0.072794 -0.191384 -0.192548
0.216417 -0.045962 0.363565
0.398865 0.226191 -0.067227
0.496961 0.139417 0.146333
0.195532 -0.079568 -0.253813
0.083493 -0.012994 -0.362077
-0.032647 -0.094948 -0.020852
0.364533 0.270872 -0.139347
0.259588 -0.216416 0.072004
0.138264 -0.088730 -0.370734
-0.069999 0.153101 -0.232958
-0.013284 0.184369 -0.254586
0.395336 -0.088623 0.244524
0.021913 -0.293305 -0.308493
0.166823 -0.125034 -0.323430
0.097189 -0.207838 0.002995
0.288909 0.092681 -0.185629
0.175321 0.333418 0.062178
-0.119678 -0.235514 -0.077548
0.035265 0.288006 0.160028
-0.136249 -0.233909 -0.141223
-0.320831 -0.138623 -0.142565
-0.195616 -0.346836 0.013455
0.014004 0.198964 -0.057177
0.348653 0.013157 0.431445
0.419540 0.132760 0.382869
0.103467 -0.233015 0.133971
0.077581 -0.176555 -0.184234
0.344593 0.248195 -0.269311
-0.151051 -0.290936 -0.165010
-0.008821 0.024600 0.185143
-0.051452 -0.055702 0.039066
0.483698 0.198596 0.094898
0.357209 -0.012376 0.328666
-0.055201 0.003784 0.067559
-0.066557 -0.086527 -0.390028
0.258984 0.320984 -0.138256
0.157429 0.334525 0.091267
0.442360 -0.079825 0.129947
-0.472624 -0.206386 -0.174259
-0.107762 -0.303658 -0.025401
-0.131467 -0.332064 -0.084381
-0.006143 0.170117 0.218133
-0.061859 -0.284322 -0.265088
0.124531 0.092404 -0.363183
0.389737 -0.044714 0.275952
-0.287964 -0.191662 -0.150294
0.322017 -0.138609 0.048896
-0.128705 -0.078141 -0.328001
0.232044 -0.207374 0.017559
0.093956 0.275885 -0.083008
0.085821 0.309125 0.177794
0.431054 0.144575 0.369619
-0.073711 0.163328 0.139430
0.184199 0.101459 -0.328866
0.374130 0.206282 -0.130149
-0.026279 -0.130776 -0.064375
-0.495698 -0.218322 -0.125182
-0.125332 -0.067032 -0.228407
0.062829 0.340522 0.101075
0.211043 0.358951 -0.175620
0.391340 -0.058834 -0.065237
0.177202 0.378951 -0.200776
-0.105408 -0.094857 -0.369010
-0.054151 0.107002 0.181065
0.421970 -0.081181 0.051651
0.479473 0.178730 0.000822
0.377697 0.167737 -0.105332
0.072150 0.248645 -0.096764
0.125117 -0.197863 -0.295553
0.349037 0.285572 -0.214040
-0.099885 -0.222003 -0.386508
0.100824 -0.200828 0.009511
0.241937 0.279004 0.164556
0.415332 0.114131 -0.059513
0.497408 0.153317 0.135973
0.416550 -0.109889 0.156263
-0.094186 0.058475 -0.103191
0.394625 0.214260 0.271862
0.347451 -0.006323 0.384540
0.178981 -0.076959 0.357783
0.268390 -0.023214 -0.207655
-0.452508 -0.220348 -0.111574
0.036091 0.234021 -0.150474
0.429825 0.185602 0.320791
0.013874 -0.058844 0.231449
-0.075125 0.035225 0.010789
0.430629 0.211986 0.167188
0.403989 0.215524 0.237015
0.208258 0.319951 0.258941
0.117798 0.163999 -0.305445
0.117182 -0.208478 -0.424165
0.126213 0.239335 0.303584
0.031758 0.020521 0.283237
0.188550 0.315094 0.125526
0.077323 -0.066192 0.325419
-0.170840 -0.292608 0.006611
0.189490 0.069967 0.372939
-0.183326 -0.328447 0.101282
0.005227 0.013946 -0.358397
-0.468439 -0.191427 -0.145578
0.256684 -0.171101 -0.025219
0.054156 -0.164137 -0.165282
0.494430 0.164295 0.139959
-0.032893 -0.250922 -0.397489
0.210011 0.356126 -0.168711
0.313249 0.293946 -0.076117
0.214990 0.356284 -0.204430
0.454513 0.055834 -0.018924
-0.088961 -0.079738 -0.101939
0.464146 0.133676 0.201467
-0.060860 0.161526 -0.161309
0.481546 0.199030 -0.035013
-0.064287 -0.026067 -0.005536
-0.132560 -0.051531 -0.301034
-0.204665 -0.382929 -0.018025
0.146961 -0.089900 -0.317069
0.179739 0.229887 0.329152
0.120689 0.387905 -0.121417
-0.147085 -0.110412 -0.274422
-0.035403 0.226474 0.099931
0.378963 0.204983 -0.114216
0.128233 0.294301 0.236428
-0.141174 -0.083481 -0.242518
0.379407 0.121659 -0.064587
-0.064915 -0.046402 0.024094
0.053265 0.380578 -0.006073
0.149280 0.387328 -0.153782
0.308121 0.238516 -0.250940
0.210980 0.304208 0.217599
0.116825 0.393502 -0.087261
0.293127 0.259533 0.108826
0.373261 0.254638 -0.092906
0.180714 -0.017524 0.370502
0.394574 0.122513 0.418796
0.139155 -0.065132 0.348237
-0.047716 -0.239828 -0.179935
0.287617 0.030184 0.393083
0.480488 0.017828 0.045631
-0.036012 0.204514 0.059979
0.115011 0.157806 0.328446
0.197326 0.022226 -0.336532
0.091909 -0.026922 -0.360815
0.351240 -0.141766 0.014792
0.008678 0.166950 0.240502
0.037184 -0.089411 -0.432297
-0.355361 -0.202093 -0.136627
-0.485494 -0.197846 -0.084995
0.025315 0.201632 -0.046619
-0.101730 0.066371 -0.149976
-0.089435 0.093398 -0.141552
0.121963 -0.222128 -0.403250
0.090643 -0.228220 0.101169
0.167418 0.299480 -0.185459
0.104071 0.135561 0.320233
0.280706 0.276655 -0.252987
0.064249 0.395562 0.002570
0.173469 0.237116 -0.158740
0.351419 0.256762 0.134615
0.043492 -0.036079 -0.360222
-0.093845 -0.182112 -0.157555
0.050808 -0.195370 -0.192706
0.277595 -0.001680 -0.165928
-0.028381 -0.009186 0.150611
0.002878 0.009907 -0.346032
0.023510 -0.192407 0.148797
0.061348 -0.084355 -0.436933
0.004368 -0.000025 0.211793
-0.273086 -0.133185 -0.149917
-0.024539 -0.083346 -0.416346
0.200945 -0.221298 0.224220
0.354470 0.091049 0.443712
0.168923 0.326783 -0.229821
0.088173 0.122710 0.310826
0.344451 0.022484 0.425726
0.039687 0.212142 -0.211138
0.277099 0.289014 0.254199
0.132088 0.285686 0.252783
-0.033124 0.200855 -0.175386
0.269995 0.017588 -0.183480
0.258719 0.070351 0.377186
0.279324 0.183128 -0.173861
0.452034 0.033854 -0.008349
0.334163 0.111364 -0.140808
-0.499553 -0.232099 -0.130364
0.166358 -0.004513 -0.342528
0.194843 -0.125748 -0.125370
-0.143135 -0.194076 -0.336915
-0.039087 0.176153 0.153495
-0.053109 -0.033002 0.035200
0.329620 0.132519 -0.131483
0.467617 0.196127 -0.107681
-0.118854 -0.034212 -0.310993
0.394062 -0.059708 0.278222
0.035137 -0.228199 -0.216564
-0.163191 -0.302652 -0.151491
0.457084 0.105883 0.349460
-0.046683 -0.091234 -0.012786
0.253480 -0.000000 -0.251797
0.255429 0.211035 0.319403
0.461894 0.138402 0.088391
-0.452099 -0.181149 -0.141458
0.467657 0.014199 0.126788
-0.266410 -0.136186 -0.214873
0.370521 0.225346 0.281799
0.275879 -0.112150 -0.081859
0.354184 0.208966 0.349497
0.300347 0.045736 -0.162276
0.421168 0.167996 0.327881
0.460328 0.073916 -0.007413
0.160116 0.375463 -0.078204
0.252420 0.266601 -0.206475
0.019806 0.179494 0.238480
-0.000962 0.222271 0.165577
0.326730 0.248762 -0.261447
0.119377 0.398929 -0.186613
-0.221693 -0.357734 0.109847
0.125994 0.376703 0.002354
0.415634 0.209227 0.159189
-0.036354 0.199802 -0.117504
-0.311891 -0.176173 -0.226809
0.329326 -0.132562 -0.038990
-0.224724 -0.334109 0.038755
-0.124994 -0.246004 -0.063017
0.259120 -0.168152 0.292232
-0.122391 -0.317573 -0.103343
-0.012658 -0.200727 -0.157936
0.454934 0.150044 -0.069493
0.001980 -0.243989 -0.418342
0.268018 -0.096395 0.342060
0.348706 0.240188 0.086531
-0.074743 -0.084793 -0.054917
-0.113052 -0.244723 -0.332466
0.269987 0.267055 0.154203
0.128029 0.232624 -0.210300
0.036616 0.252661 0.053132
0.070499 0.204758 -0.261021
-0.076030 -0.230168 -0.128087
-0.112003 -0.252258 -0.230452
0.221741 -0.176037 -0.033098
0.326712 0.256887 -0.007951
0.098090 0.174242 -0.303433
0.055604 -0.290964 -0.337351
0.147811 0.238425 0.295387
-0.314709 -0.184118 -0.237240
0.459108 0.086949 0.301306
0.237513 0.011134 -0.286961
0.077955 0.345113 -0.035174
0.129585 0.308997 0.209186
0.040560 -0.161366 -0.066218
0.110715 -0.213012 0.002658
-0.053505 0.179804 0.137711
0.054715 -0.202643 -0.427653
0.461368 0.206081 -0.108303
0.135669 0.376906 0.125443
-0.313021 -0.170022 -0.203918
0.041861 -0.199451 0.114261
0.047563 -0.244177 -0.244261
0.043945 0.156839 0.268995
0.174842 0.269135 -0.151683
-0.171029 -0.277995 -0.142269
0.176099 0.240974 -0.156072
0.456438 0.192087 0.109884
-0.208746 -0.232492 -0.221091
-0.005231 -0.050883 -0.400606
0.083396 0.190147 -0.293918
-0.066422 0.191264 0.080826
0.130002 -0.131607 -0.179036
-0.062849 0.009294 0.075312
-0.084506 0.088755 -0.160549
-0.169150 -0.284822 0.018163
0.441809 0.202400 0.052000
-0.192832 -0.339876 0.039783
-0.430279 -0.227676 -0.196648
0.036481 0.105103 -0.358967
0.305477 0.109168 -0.181462
0.359797 0.279533 -0.161129
0.411305 0.159592 0.366590
0.056539 -0.014654 0.295927
0.149910 0.333242 0.089589
-0.077590 -0.275285 -0.085983
0.307178 -0.175639 0.248059
0.394521 -0.003153 0.294316
-0.165357 -0.197844 -0.296337
0.341095 0.007550 0.355513
-0.037016 -0.023210 0.116126
0.442229 0.205350 -0.113274
0.359930 0.273610 -0.228543
0.102329 0.358570 0.133808
0.046521 0.243022 -0.076322
0.433594 0.145494 0.343794
0.237699 0.111201 -0.269804
-0.029284 -0.046188 -0.393487
0.015164 -0.016664 0.229413
0.057694 0.030015 0.301492
0.135427 0.389611 -0.159925
-0.263584 -0.203165 -0.263871
-0.389436 -0.227426 -0.146471
0.076810 0.314971 0.162600
-0.228117 -0.390794 0.030862
0.147229 0.361391 0.174069
0.001070 -0.128072 0.006366
0.096735 -0.021717 -0.363804
-0.095521 -0.180183 -0.384310
-0.243485 -0.342920 0.108188
0.263713 -0.003365 -0.188229
0.046388 0.025520 0.295951
0.159390 -0.108328 -0.320849
-0.003040 -0.121263 0.187143
-0.136898 -0.063261 -0.244980
-0.227252 -0.129440 -0.183284
-0.058693 0.145124 -0.182904
0.329562 -0.135308 0.000854
0.244582 -0.221529 0.248470
0.428426 0.212029 -0.140106
0.087478 0.320919 -0.018083
-0.260790 -0.222682 -0.174589
-0.164027 -0.321315 0.092677
0.120587 -0.039202 0.347818
0.048878 0.128722 -0.349827
-0.128171 -0.185631 -0.180408
-0.040308 0.042501 0.187426
0.371784 0.071451 -0.066149
0.483760 0.161111 0.060648
0.230036 0.357487 -0.155322
0.059936 0.046133 -0.383623
-0.282086 -0.231149 -0.183368
0.036658 0.200837 -0.280561
0.040098 0.212740 -0.218831
0.110938 -0.068351 -0.421185
-0.338410 -0.171215 -0.183415
-0.062388 -0.262957 -0.188073
0.100742 -0.197443 -0.257176
0.139601 -0.217339 -0.367731
0.406271 -0.059977 0.226606
0.441977 -0.010835 -0.019658
0.022616 -0.176284 0.082348
0.221455 0.347259 -0.154089
0.233972 -0.055376 -0.216210
0.054241 -0.286594 -0.320936
0.446102 0.023074 -0.010752
-0.268890 -0.175485 -0.233407
0.127304 -0.239484 0.144498
0.283140 -0.171592 0.065640
0.320885 0.104030 0.452675
0.283705 0.099450 0.436431
0.455330 -0.028224 0.054972
-0.053292 0.178859 -0.191215
-0.192643 -0.373366 -0.034043
0.308146 0.305387 -0.190195
0.388505 -0.131404 0.124600
0.229343 0.056566 -0.308245
0.216302 0.004101 0.374837
0.436762 0.065544 0.378679
-0.055504 -0.273931 -0.300705
-0.434953 -0.208729 -0.126877
0.051773 -0.026557 0.302311
0.128441 0.304304 -0.148667
0.055466 -0.180904 0.215555
-0.155813 -0.106724 -0.246502
0.195410 0.346150 -0.071884
0.443368 0.017913 -0.007357
0.383638 0.267166 -0.241515
0.102205 -0.194223 0.237041
0.126905 -0.054189 0.350364
0.306637 0.067921 0.443586
0.128866 -0.161962 -0.107455
-0.165283 -0.261329 -0.062810
0.324841 -0.054925 -0.099244
-0.306616 -0.181219 -0.226991
0.173007 -0.125183 -0.200977
0.377778 0.216372 0.319627
-0.041047 0.135384 0.002151
-0.019677 0.189619 0.031110
0.164107 -0.163032 -0.093535
0.045785 0.265567 0.062082
0.243965 0.100676 -0.268664
-0.119632 -0.121325 -0.186967
0.110038 -0.221842 0.199738
0.209770 -0.156221 -0.071851
0.436096 0.017024 0.264769
-0.270340 -0.192875 -0.160858
0.206038 -0.217513 0.242662
-0.111751 -0.223700 -0.101184
0.359697 -0.152266 0.242502
-0.229257 -0.233424 -0.213296
-0.172510 -0.210908 -0.208336
-0.199608 -0.354012 0.061239
-0.182857 -0.325021 -0.118385
0.006123 0.214041 -0.228452
-0.091865 0.070734 -0.203851
0.115969 0.339078 -0.082052
-0.073488 0.045124 -0.282927
-0.059208 0.059650 -0.303693
0.050209 -0.209182 0.082803
0.083553 -0.108442 0.315893
0.163986 -0.241447 0.059982
0.205003 -0.246233 0.119070
0.458046 0.210269 -0.091691
0.130573 0.374930 -0.070640
-0.476386 -0.228912 -0.121327
0.164595 0.084826 0.357711
0.183006 0.329837 -0.024078
0.300726 0.108757 -0.174089
0.144285 0.031904 0.366021
-0.388883 -0.121502 -0.152382
0.275887 0.275524 -0.227449
0.453355 0.104364 0.335135
0.061942 0.225914 0.002517
0.281932 -0.175417 0.068441
0.350817 0.245222 -0.007077
0.263014 -0.158572 0.301182
0.339248 0.136412 -0.079539
-0.065159 0.148849 -0.133225
0.225227 0.329186 -0.224108
-0.080251 -0.003175 -0.317572
-0.087673 -0.190434 -0.143891
0.074209 -0.153462 -0.146966
0.218602 -0.050310 -0.276791
0.006304 -0.211314 -0.414351
0.132446 0.314909 -0.171021
0.140258 0.123023 -0.342224
0.451326 0.046259 -0.005704
0.189583 -0.096607 -0.213319
0.274541 0.269754 0.028211
0.127227 0.253961 -0.157565
0.027634 0.274153 0.064662
0.228761 0.274573 0.292108
0.243884 -0.050929 -0.153632
-0.219102 -0.348716 0.013957
-0.105844 -0.187949 -0.388875
0.244290 0.233300 -0.169312
-0.065414 0.121751 0.159127
0.396585 0.153949 -0.100362
-0.109581 -0.201455 -0.157642
0.184775 0.356068 -0.107642
-0.076719 0.127508 -0.159684
0.159064 -0.025945 0.369613
0.403905 0.219682 -0.055329
0.304794 0.232449 -0.236065
0.239450 0.251144 -0.155245
0.152025 0.246283 0.311068
0.158730 0.173689 -0.284944
-0.086555 0.085282 -0.142500
0.373362 -0.128050 0.202223
-0.158818 -0.267083 -0.140393
0.399956 0.246096 -0.139530
-0.143957 -0.314392 0.003802
0.083614 0.010978 -0.375854
-0.116389 -0.186990 -0.165715
0.442278 0.137999 0.332006
-0.106806 0.041166 -0.126790
0.312587 0.084830 -0.103935
0.056333 0.204654 -0.018370
0.410850 0.141403 -0.091713
-0.087213 -0.094963 -0.142225
0.305139 -0.176039 0.253111
0.407107 -0.083469 0.001557
0.083400 0.269237 0.033853
0.393540 0.014482 0.434921
0.038291 0.151079 0.267234
0.270224 0.247512 0.307919
0.206460 0.308280 0.022122
-0.064254 -0.171206 -0.406270
0.202645 -0.154625 0.307466
-0.038962 -0.114946 -0.054723
-0.100537 -0.013296 -0.264754
0.348493 -0.117748 -0.061729
0.357140 0.089748 -0.064104
0.253985 -0.132133 -0.060568
0.255004 0.133059 0.388456
-0.123939 -0.348825 -0.084371
0.076473 -0.171410 -0.048658
0.017596 -0.210809 -0.181541
-0.052614 0.177223 -0.145036
0.152398 -0.078790 0.347861
0.188192 -0.235629 0.067698
0.138283 0.098738 0.355126
0.398384 -0.096789 0.190154
0.164651 -0.097196 0.354217
0.430950 -0.060625 0.041873
0.397096 0.091145 -0.065414
0.021137 -0.006687 0.255246
0.097460 0.388383 0.085081
-0.040050 -0.051968 0.092461
0.276750 0.030184 -0.201308
-0.460071 -0.183325 -0.124054
0.228808 0.337999 -0.191093
-0.082731 -0.247129 -0.126468
0.272050 0.283231 -0.242761
0.477675 0.093364 0.123937
0.326750 0.286499 -0.059815
0.066259 0.225741 0.245430
0.152880 -0.245937 0.107542
-0.371272 -0.105181 -0.149815
0.112882 -0.196936 -0.280605
0.008209 -0.191591 -0.158903
0.315857 0.234667 0.335782
-0.188380 -0.230781 -0.238318
0.435518 0.161320 0.328183
0.202212 -0.132175 -0.093039
0.409183 0.192495 0.075853
0.070186 0.007643 0.327749
0.165934 -0.254519 0.153325
-0.104897 -0.250078 -0.353232
0.120674 0.385629 -0.086179
0.407451 0.022896 0.405814
-0.254150 -0.160158 -0.163900
-0.078179 -0.099472 -0.372935
0.349835 -0.122683 -0.008726
0.301965 0.271748 0.135239
-0.006044 -0.210217 -0.422248
0.109103 0.054082 0.336138
-0.128882 -0.138531 -0.336500
0.010382 -0.306676 -0.252014
0.158073 0.219087 -0.205226
0.125086 -0.132156 0.311495
0.120531 -0.179242 -0.239596
0.187899 0.202727 -0.214094
0.169809 0.351233 0.185010
0.059462 0.363673 0.020354
0.399309 0.256697 -0.087115
0.173428 -0.138746 -0.380993
-0.296829 -0.130870 -0.154396
-0.086657 0.030669 -0.052085
-0.063498 0.038665 -0.297639
0.212482 0.154881 -0.273387
0.224269 0.010088 -0.318792
0.240144 0.157111 -0.197064
-0.008785 -0.098727 0.183982
0.282744 0.074423 0.411282
0.123484 -0.162017 -0.261789
-0.074281 0.076863 -0.262286
-0.102637 -0.059695 -0.166041
0.121163 0.126149 0.352364
0.235650 -0.238506 0.149776
0.050321 -0.202949 0.182129
0.081795 0.308203 0.166571
0.492076 0.179429 0.037521
-0.135016 -0.273072 -0.181329
-0.030148 0.207401 -0.183360
0.408880 -0.084073 0.218973
0.163195 0.388228 -0.164945
0.083490 -0.221530 0.165732
0.017941 -0.299518 -0.291278
0.109052 -0.067981 -0.395473
0.161276 -0.119639 -0.184911
0.431940 0.184045 -0.108313
0.439268 -0.000530 0.203507
0.483919 0.075769 0.065391
0.069915 -0.197989 -0.205953
0.026515 0.281033 0.104487
0.462634 0.106116 0.222973
0.203847 -0.238373 0.047545
-0.355944 -0.217150 -0.152183
-0.072827 -0.272057 -0.183515
-0.125894 -0.220605 -0.138109
0.349074 -0.108780 -0.063851
0.430747 -0.063126 0.007383
-0.063390 0.118177 -0.272415
-0.034413 -0.182054 -0.151624
0.133842 0.168448 -0.317270
0.080352 0.189652 0.279701
-0.154660 -0.321407 -0.129612
-0.183360 -0.324645 0.061925
0.025614 0.120473 -0.341791
-0.045355 0.054821 0.102495
-0.360281 -0.154545 -0.132585
0.342483 -0.152705 0.061975
0.347979 0.267399 0.164158
0.265647 -0.212276 0.170577
-0.077592 -0.021594 -0.051776
0.067053 0.262724 -0.095405
0.090899 0.283621 -0.084897
0.141629 0.380993 -0.158866
0.159946 0.077878 0.356556
0.247182 0.288442 0.281859
0.264148 0.292952 0.011359
0.120735 0.345488 0.161388
-0.062391 -0.055638 -0.384887
-0.281269 -0.196981 -0.142900
-0.146088 -0.224896 -0.291940
0.147759 -0.094120 -0.284918
0.253165 0.222681 -0.180030
-0.305411 -0.166086 -0.123425
0.434218 -0.023767 -0.000210
-0.237299 -0.365610 0.088065
0.157815 -0.186362 -0.390048
0.432250 0.073913 0.397845
-0.089850 -0.296757 -0.034488
0.061682 0.301756 0.168258
-0.144668 -0.101948 -0.248676
0.200007 -0.250017 0.122301
0.065980 -0.180072 -0.177334
0.052554 0.178775 -0.306211
0.115501 0.321770 -0.051916
-0.028122 -0.095176 0.114401
0.130918 -0.214191 -0.337712
0.297010 0.234122 0.313040
0.478677 0.131167 0.192795
0.328065 0.109954 0.439044
-0.293375 -0.125436 -0.203533
0.468816 0.073960 0.008060
0.251839 0.307477 -0.216734
0.131246 0.178992 -0.306408
0.416110 0.191367 -0.119263
0.115897 0.244771 -0.006429
0.263490 0.317885 -0.143357
0.211948 0.310810 0.013521
-0.146879 -0.209137 -0.212923
-0.076301 -0.046183 -0.035187
0.337094 0.115856 -0.114323
-0.492942 -0.206298 -0.135044
0.058816 -0.143598 -0.438141
-0.448170 -0.237129 -0.152026
0.411123 -0.104720 0.027305
0.435896 0.221890 -0.087710
0.090060 0.097257 0.330763
0.025965 0.213916 -0.210137
0.278421 -0.198017 0.106019
-0.412757 -0.176726 -0.161664
0.259864 0.279991 0.130110
-0.064220 0.107240 0.157764
0.209763 -0.031927 0.372894
0.095232 0.253137 0.005084
0.482711 0.006720 0.049180
0.467198 0.061776 0.012377
0.340235 -0.181983 0.194429
0.141592 0.333600 0.090624
0.338700 -0.111704 0.295678
0.224337 0.336770 -0.121900
-0.114896 -0.042248 -0.197655
-0.063379 0.118506 -0.044866
-0.083466 0.127472 0.085134
0.180347 -0.030467 -0.323056
0.203481 0.353480 -0.104568
0.409957 0.024242 0.401077
0.076687 -0.163833 -0.055476
-0.101728 -0.269663 -0.230105
0.181883 0.320360 0.070877
-0.345822 -0.158472 -0.191229
0.337074 0.245917 0.283944
-0.090405 -0.076345 -0.076233
0.225660 -0.170990 -0.045318
0.299481 0.052176 0.436044
0.010806 0.158224 -0.015259
-0.186443 -0.301789 0.014347
0.156326 0.225205 -0.197324
0.001886 0.207556 0.037120
0.066971 -0.201035 0.020442
0.086639 0.169852 -0.317511
0.263651 0.300153 -0.055701
0.424292 -0.079056 0.032074
0.441313 -0.024089 0.153013
0.026925 -0.183974 0.087773
0.067329 -0.259805 -0.295327
0.333630 0.196895 -0.214183
0.325089 -0.139028 -0.006236
-0.087419 -0.250819 -0.086737
0.279717 0.290507 -0.009573
0.253242 -0.027642 -0.186738
0.072982 -0.152672 0.266477
0.076752 0.268787 -0.092792
0.146014 -0.125808 0.321846
0.151017 0.272204 0.279388
-0.373446 -0.195663 -0.224338
-0.120907 -0.038993 -0.267910
0.221465 0.301304 0.031291
0.061786 -0.202375 0.094654
-0.347193 -0.118478 -0.157561
0.113894 0.387628 -0.145684
0.310696 0.298263 -0.099340
0.055708 -0.185465 0.034128
-0.011582 -0.189956 -0.160154
0.198758 0.102902 0.377674
-0.172388 -0.339641 0.045550
0.287413 0.249188 -0.242404
0.205072 -0.029833 0.372062
0.151834 0.327171 0.071398
-0.090700 0.010432 -0.234504
0.308995 0.002133 0.383467
0.057390 0.301878 0.161804
0.086826 -0.195286 -0.225375
0.226674 -0.022533 -0.276966
0.076824 0.233283 -0.213190
-0.099443 -0.202396 -0.154828
0.388271 -0.080763 0.268593
0.003838 0.202017 -0.254080
0.472041 0.117820 0.148404
-0.094269 -0.013175 -0.105052
0.102671 0.241380 0.283627
0.223665 0.302936 0.275588
0.141947 0.332231 0.216540
0.108320 0.101805 0.339354
0.258594 0.144133 0.396108
0.198128 0.036352 -0.339922
0.354747 0.130245 0.438955
0.466021 0.205182 -0.056333
-0.100687 0.043076 -0.119996
0.064889 -0.279518 -0.323393
-0.041555 0.186290 -0.132138
0.101506 -0.170719 -0.078185
0.139335 -0.191918 -0.315603
0.126948 -0.070809 -0.398402
-0.050643 0.155147 0.056272
0.273581 -0.065280 -0.130777
0.072977 0.210090 -0.250888
-0.206671 -0.359349 0.032150
0.031579 0.043215 0.275257
0.334003 -0.183024 0.167321
0.123464 0.090442 -0.356697
-0.141840 -0.212467 -0.198698
0.124942 0.374473 -0.197139
0.322087 0.001608 0.386735
-0.101045 0.013707 -0.159872
0.118140 0.293920 -0.131727
0.361641 -0.157301 0.145399
0.124680 0.336064 0.171837
0.264992 0.291844 -0.218723
0.396602 -0.013012 0.387815
-0.377954 -0.217965 -0.149096
0.343551 -0.133622 0.254481
0.445683 0.150237 -0.058155
0.377889 0.120052 0.424159
-0.359548 -0.161891 -0.122091
0.421804 -0.009427 0.250954
-0.063071 0.140122 -0.185415
0.083890 0.233262 0.012832
0.383516 0.261393 -0.118673
-0.082438 -0.119950 -0.126607
-0.022964 0.047600 0.192597
0.343155 0.189837 -0.179555
0.453906 0.131039 0.325457
0.071465 0.255879 -0.102534
0.124106 0.298594 -0.154296
-0.008732 0.089435 0.252944
-0.132846 -0.048515 -0.268662
0.060056 -0.278496 -0.331567
-0.022074 0.167681 -0.261621
0.278105 -0.207097 0.219425
-0.000282 0.007733 0.208140
0.159386 0.332657 0.009341
0.016588 0.176287 0.233919
0.058553 -0.282386 -0.319777
-0.063067 0.043324 -0.008852
0.132680 -0.127688 -0.181434
0.133681 0.076569 -0.357331
0.176875 -0.136257 -0.379939
0.109836 -0.233352 0.162083
-0.005726 0.246115 0.106046
-0.415685 -0.188474 -0.110220
0.138496 -0.207722 -0.009422
-0.101109 0.064728 -0.139084
0.264263 0.315434 -0.213827
-0.110574 -0.031109 -0.317051
-0.059399 0.020775 0.007688
0.126785 -0.031979 -0.352454
0.222487 0.304332 0.237096
0.068234 0.235111 0.019982
-0.140332 -0.087596 -0.205581
-0.074483 0.136181 -0.169721
0.270252 0.191916 0.359374
0.069111 0.327347 0.024688
0.171304 0.270267 0.297582
0.282966 -0.111047 -0.071543
-0.288017 -0.150381 -0.225673
0.384005 0.031325 0.426902
0.114292 0.388921 -0.058678
-0.080752 0.051628 -0.078319
-0.350547 -0.105254 -0.168959
0.386153 -0.103237 0.239483
-0.034938 -0.127440 -0.053330
0.368514 -0.084321 -0.059879
-0.143808 -0.064565 -0.253923
-0.079928 0.103767 -0.127211
-0.057539 0.005331 0.072566
-0.028388 0.034843 -0.337087
0.179261 0.066016 0.376659
0.308511 -0.120148 0.300991
0.142475 -0.158948 -0.116780
-0.234971 -0.235218 -0.230698
-0.191269 -0.282783 -0.040280
0.155377 0.388617 -0.164255
0.121706 0.125229 0.343298
-0.233378 -0.362045 0.011424
0.030747 -0.294962 -0.284032
0.129502 -0.136168 -0.209085
0.226221 0.098488 0.378617
0.311010 0.270101 -0.251936
0.263044 0.120983 0.394926
0.413153 0.011488 0.370328
0.005203 0.064736 0.261989
0.425662 -0.070682 0.017409
0.452260 0.208270 0.049667
0.214497 -0.060777 -0.255294
0.238222 -0.026050 -0.251009
-0.210354 -0.406717 -0.000938
-0.404147 -0.116005 -0.137346
0.026266 0.051909 -0.373155
-0.019506 0.153153 0.206620
0.112750 0.264078 -0.135633
0.141762 -0.188490 -0.060210
0.458596 0.072058 0.246039
0.050953 -0.161533 -0.095419
0.239778 0.158734 -0.203146
0.331310 0.183833 -0.180115
0.229933 -0.075916 0.353456
0.432500 -0.017656 -0.009387
0.456699 0.072978 0.304399
-0.041350 -0.262789 -0.188820
0.223148 0.336369 -0.033493
0.395975 0.222591 0.214769
-0.221794 -0.324542 0.092144
0.139272 0.322371 -0.210000
-0.065661 -0.097139 -0.088402
0.274268 0.315450 -0.036432
0.124282 0.364543 -0.078440
0.089443 -0.252042 -0.361449
0.126404 0.349830 0.164491
0.171237 0.329974 0.105349
0.152559 0.101561 0.364572
0.235012 0.297347 0.155335
0.482579 0.128429 0.104309
0.147943 0.388161 -0.182066
0.027901 -0.272788 -0.367398
0.294592 0.298206 -0.103325
-0.036862 0.139392 -0.061045
0.168929 0.114347 0.351780
0.326430 0.141538 -0.115452
0.074875 -0.152902 0.277869
0.378300 0.057276 0.429552
0.060359 0.066579 -0.377332
0.200588 0.354976 -0.075646
-0.019580 0.169708 0.014859
0.234756 -0.061798 0.367110
-0.089204 -0.277331 -0.181654
0.074790 0.038458 -0.372081
0.177759 -0.170171 -0.329762
0.039973 -0.282964 -0.347666
0.367135 0.209313 0.339751
0.227140 -0.026978 0.379282
0.325571 0.283594 -0.169154
0.390039 -0.098951 0.201560
-0.096308 -0.306271 -0.050723
0.494538 0.146183 0.114114
-0.321101 -0.165562 -0.136631
-0.187927 -0.303781 -0.009838
-0.016226 -0.083681 0.157243
-0.019447 -0.133359 -0.080264
0.024871 -0.181916 -0.157289
0.057910 -0.182341 0.237601
-0.119451 -0.217341 -0.105576
0.202638 -0.257422 0.109324
-0.049163 -0.081061 -0.007493
0.184612 0.213136 -0.212408
0.145296 0.173422 -0.299714
-0.115665 -0.242814 -0.308182
0.002713 -0.304758 -0.277496
0.070742 0.282389 0.195956
-0.046367 0.173254 -0.099717
0.155946 0.332408 -0.011444
-0.121432 -0.252115 -0.045565
0.123200 -0.204387 -0.307929
0.156864 -0.140387 -0.396185
0.060047 -0.278866 -0.332054
0.138841 -0.087646 -0.392690
0.377427 0.203451 -0.148644
-0.014311 -0.050509 0.179736
-0.073241 0.136275 -0.198968
0.111214 0.335546 -0.088529
0.238149 0.104642 0.381113
0.299699 0.060058 -0.155506
0.142114 -0.141917 -0.264390
0.412239 0.092917 0.418729
0.180666 0.184257 0.339636
0.195411 0.360749 -0.158909
0.000169 0.205336 0.033064
-0.059737 0.075425 0.093361
-0.172880 -0.194666 -0.292059
-0.180571 -0.309981 0.050232
0.312968 0.297471 -0.185857
0.145926 -0.091033 -0.333143
-0.250912 -0.133456 -0.194626
-0.160774 -0.250655 -0.066044
0.445791 0.056361 0.249047
0.016613 -0.293094 -0.315786
0.344105 -0.161973 0.227731
-0.239179 -0.129981 -0.212648
-0.078818 -0.103603 -0.148405
0.045099 0.179059 0.264548
0.264369 0.128198 0.385533
-0.329978 -0.204344 -0.242596
-0.146623 -0.253710 -0.145181
0.070191 0.179807 0.266092
-0.014755 0.011944 0.168831
0.088479 0.128675 0.326890
0.274800 -0.204868 0.108241
0.436756 0.137912 -0.080910
-0.029053 -0.300093 -0.248775
0.205822 0.189443 0.344051
0.281266 -0.209914 0.193256
0.194969 -0.032478 -0.284460
0.332751 0.230116 0.316793
0.233268 0.337923 -0.064293
-0.025656 -0.099365 0.111547
0.173105 -0.239369 0.199740
-0.167929 -0.321178 0.068046
0.238144 0.306670 0.020790
-0.081512 -0.001502 -0.316014
0.328261 0.039846 0.435039
0.391278 0.227301 -0.077922
0.000726 -0.266546 -0.227121
0.016101 -0.154682 -0.106501
0.064642 0.362150 0.001625
0.162721 0.187721 0.337623
0.372817 0.228686 -0.006186
-0.230375 -0.360964 0.089487
0.389336 0.223647 0.131491
0.385992 0.016436 -0.078411
0.187056 0.064321 0.372176
0.058306 -0.179414 -0.009103
-0.012374 -0.124640 0.064975
-0.092076 -0.072073 -0.101616
-0.483520 -0.195371 -0.100156
0.193891 0.081874 0.371415
0.473720 0.193885 0.129814
0.361787 0.075687 0.443679
-0.118850 -0.301172 -0.156227
0.030550 -0.082472 -0.413959
0.131189 -0.148359 -0.134687
-0.144006 -0.327181 0.056563
0.201687 0.355673 -0.215174
0.279939 0.053417 0.393120
0.417847 0.239241 -0.106778
-0.069911 0.005368 0.041775
0.478772 0.124567 0.049741
0.382083 -0.056361 -0.093506
-0.052939 0.113889 -0.007088
-0.076729 0.023966 -0.261532
-0.095397 -0.266792 -0.284676
0.168370 -0.178757 -0.063443
-0.003145 -0.013196 -0.359861
0.163243 0.378015 -0.138186
-0.114279 -0.305912 -0.018317
0.331705 0.115862 0.441608
0.368799 0.268259 -0.220075
0.143268 0.312882 0.232962
0.240575 -0.032188 -0.243343
0.393411 -0.132277 0.166651
-0.432592 -0.233956 -0.169595
0.129291 0.366648 0.036332
-0.075744 0.056024 -0.271155
-0.042777 -0.286305 -0.322952
0.159439 -0.243910 0.122857
0.214886 0.293091 0.018437
0.183324 -0.174282 -0.071960
0.302778 -0.023607 0.354803
0.077912 0.100213 -0.354376
-0.361850 -0.240349 -0.188712
0.231565 0.289102 0.278293
-0.497127 -0.240053 -0.124572
-0.091755 -0.005711 -0.282936
-0.144250 -0.100211 -0.263198
0.075930 0.240082 -0.029963
0.366651 -0.050953 0.301861
0.013255 -0.164478 0.126450
0.065021 -0.206421 -0.204886
0.353314 0.036461 0.441660
0.183132 -0.087028 -0.224848
0.339798 -0.085243 -0.090871
0.374177 0.220690 -0.136499
0.394029 0.224902 -0.069542
0.283259 -0.033800 -0.119740
-0.135278 -0.223363 -0.102583
-0.053064 -0.011733 -0.359742
0.241081 0.284972 0.288965
-0.483896 -0.231353 -0.115571
0.125208 -0.064749 -0.352839
0.060613 0.223814 -0.036799
0.123178 -0.232172 0.038293
-0.144564 -0.132476 -0.212021
0.453991 0.103682 0.327022
-0.194997 -0.322377 -0.090914
-0.150534 -0.280917 -0.161359
0.410587 0.010683 0.342326
0.144863 -0.130001 -0.234810
0.156538 0.382982 -0.165851
0.371713 0.227777 0.260241
-0.066900 -0.163641 -0.399386
0.080083 -0.012483 -0.376214
0.191545 -0.064136 -0.261041
0.218597 -0.166840 -0.055854
-0.103091 0.002794 -0.249908
0.127445 0.125540 0.339102
0.298965 0.298498 -0.047256
0.141446 -0.084101 -0.330182
-0.032996 0.071064 0.220555
0.055338 -0.197031 0.038431
0.425543 0.030216 0.396546
-0.250018 -0.381503 0.110223
0.183892 0.193672 0.336624
-0.220203 -0.328509 0.046276
0.278995 0.282448 0.204538
0.233132 0.113345 -0.277150
-0.001153 0.212245 -0.253346
-0.194985 -0.333436 0.102016
-0.089353 0.071250 -0.229926
0.460638 -0.055884 0.075474
0.118889 0.087302 0.344172
0.062390 0.033435 0.311601
0.032695 0.162369 -0.314048
0.284339 0.277766 0.169315
0.339282 0.248625 0.064529
0.227897 0.212557 0.327202
0.270303 0.163512 -0.183130
0.332825 -0.177208 0.123950
0.116541 -0.241232 -0.367028
-0.078504 0.128553 -0.205976
-0.105580 -0.083355 -0.360528
0.256175 -0.186677 -0.000840
0.198024 -0.065629 -0.265398
-0.096706 0.045522 -0.163424
-0.382561 -0.119414 -0.158106
0.319917 0.247127 0.102104
-0.186465 -0.277511 -0.077966
0.441601 0.032715 -0.016754
0.010290 -0.292876 -0.244284
-0.283953 -0.220826 -0.179905
0.203058 -0.212948 0.007436
0.181999 0.138896 -0.314014
-0.090671 -0.218881 -0.399607
0.248613 0.307655 -0.017150
0.417384 0.135588 0.379769
0.133365 -0.073897 -0.360036
0.397438 -0.082302 0.228643
0.459246 0.211870 -0.104056
0.218660 0.293680 0.138264
0.141403 -0.089850 -0.278084
0.152950 0.285631 0.268151
0.138783 0.131729 -0.333759
0.284482 -0.174111 0.046944
0.011538 -0.029748 0.228164
0.020726 0.211512 -0.096526
0.081143 0.260238 -0.114460
0.060972 0.218361 -0.234218
0.223141 -0.146700 0.313445
0.234697 0.054272 -0.306239
0.068505 0.407295 0.031893
-0.024977 0.041754 0.199126
-0.113830 -0.199037 -0.128559
0.133779 -0.126662 -0.215746
-0.055173 0.105044 -0.006149
0.327479 0.044840 -0.080895
0.397183 0.227329 0.187791
-0.029844 0.149552 -0.297503
-0.089108 0.065403 -0.226276
0.056929 0.310314 0.073272
0.389239 -0.128124 0.150153
0.077239 0.241660 -0.158498
0.155643 0.215766 -0.241900
0.323529 -0.163854 0.082069
0.106874 -0.213176 -0.002415
0.368449 -0.070519 -0.085413
0.096651 -0.221515 -0.279406
0.239618 -0.202852 -0.008136
-0.247609 -0.347330 0.111617
-0.149999 -0.088268 -0.291167
-0.054885 0.094916 0.202797
0.191593 -0.165790 -0.342757
0.151980 -0.199548 -0.032383
0.364070 -0.148283 0.081769
-0.079452 0.082853 -0.245530
0.383053 0.053599 0.437890
0.147426 0.242259 -0.162504
-0.177243 -0.377031 -0.023424
0.231372 -0.067213 -0.170480
0.451704 0.169732 0.264405
-0.065245 0.184891 -0.183856
-0.146583 -0.158289 -0.315494
-0.048162 -0.041853 0.060248
0.051859 -0.059546 -0.384042
0.405501 0.128481 -0.043792
0.420578 0.198128 0.071449
0.472745 -0.012205 0.085772
0.178789 -0.152642 -0.324567
0.389785 0.225751 0.158466
0.134189 0.359720 0.142441
0.392136 0.177448 -0.115916
0.265087 0.314522 -0.097421
-0.156067 -0.261682 -0.024423
0.269095 0.150368 0.362482
-0.029822 -0.107011 -0.037288
-0.190619 -0.297158 -0.067851
-0.381723 -0.193907 -0.129772
0.300039 -0.148155 0.006825
0.119080 -0.220852 -0.330609
0.478965 0.133720 0.073514
0.128996 0.341233 0.064528
0.261540 0.120388 0.374040
0.213061 0.344512 -0.138005
0.197269 -0.144174 0.314436
-0.142457 -0.316687 -0.019005
0.088097 0.308252 0.161836
-0.004290 -0.136883 -0.074069
-0.173377 -0.289594 -0.100176
-0.136988 -0.277242 0.007001
0.211772 -0.184704 0.268638
-0.032754 -0.085868 0.111368
0.004597 -0.147413 0.027980
0.215905 0.105788 -0.300145
-0.116134 -0.303133 -0.026409
-0.063084 0.143926 0.147831
0.131027 0.350504 0.171891
0.040499 -0.152764 -0.058730
0.415934 -0.047163 0.204321
-0.116731 -0.022260 -0.267839
0.397964 0.226470 -0.005504
0.169662 0.104768 0.363293
0.100912 -0.240364 -0.397494
-0.000388 -0.134955 0.020254
0.133874 0.285181 -0.144713
-0.008979 0.118511 -0.329782
0.321348 0.019024 0.441748
-0.039243 0.007220 -0.340587
0.114932 0.381059 -0.101008
-0.000020 0.234651 0.056414
0.144272 0.368607 0.097978
-0.062016 -0.067850 -0.035763
0.467338 0.129117 0.207948
-0.177356 -0.281133 -0.011550
0.410665 0.129403 0.396524
0.157208 -0.241051 0.046510
-0.188656 -0.355866 -0.007055
0.048892 -0.220442 -0.203388
0.489677 0.167185 0.066156
0.102283 0.164588 -0.312361
0.475651 0.103933 0.040835
0.215344 0.072201 -0.310155
0.204253 0.355780 -0.114637
0.328281 0.091844 -0.072392
-0.049376 -0.019974 0.090306
-0.231228 -0.331600 0.105077
0.001045 0.163139 -0.305058
-0.120735 -0.252756 -0.245458
0.219903 0.333158 -0.037690
0.075774 -0.172281 -0.430247
0.162844 -0.169526 -0.387575
0.327572 0.259588 0.002691
0.315143 0.268007 0.217067
0.307110 0.262829 0.016619
-0.187415 -0.303074 0.037605
0.308120 0.304102 -0.257461
0.360988 0.097426 0.443193
-0.000957 0.214629 -0.144225
0.277103 -0.196555 0.067788
0.376018 0.196612 0.360995
-0.094129 -0.308261 -0.010345
0.318423 -0.113310 -0.070246
-0.439588 -0.229413 -0.142512
0.249332 0.305626 0.234138
0.040235 -0.164690 0.208410
0.032705 0.230408 -0.172535
0.221752 0.277681 0.301260
-0.342939 -0.229599 -0.196486
-0.082125 -0.230882 -0.092350
0.235762 0.292437 0.105509
0.341723 0.160089 -0.125177
0.302756 0.276263 -0.025238
0.442588 0.139498 0.330733
0.229722 0.029861 -0.296898
0.304493 0.031583 0.423864
0.131956 -0.135613 -0.239282
0.052565 -0.167904 -0.013109
0.009982 -0.023038 0.216192
0.006094 0.244401 0.077998
0.223812 0.189859 -0.193346
-0.179416 -0.317435 0.077825
0.226755 -0.219590 0.040661
0.247679 0.276660 0.196089
0.066310 0.217884 -0.241618
-0.039347 -0.109028 -0.051475
0.049244 0.231535 0.239630
0.104754 0.291598 -0.080146
0.416766 -0.097570 0.153250
0.029334 0.215826 -0.200059
0.096573 0.267773 -0.029320
0.435219 0.155474 0.325843
0.070270 -0.177770 -0.428765
0.246384 0.330965 -0.158012
0.163037 -0.124502 -0.183042
0.251660 -0.218098 0.111664
0.138348 0.141756 0.342266
-0.039014 -0.283429 -0.307922
0.381454 0.219915 0.300394
0.298288 0.052584 0.439378
0.005110 0.096258 -0.339895
0.326869 0.087175 -0.109521
0.286191 0.288202 0.218207
-0.090053 0.007937 -0.019739
0.169286 0.197483 -0.255356
-0.034575 0.192527 0.185067
0.192039 0.210085 -0.179367
0.115331 -0.228242 -0.410847
0.446852 0.132040 0.243318
0.258962 0.168909 -0.180975
-0.117782 -0.133848 -0.167921
-0.030967 0.248225 0.127191
0.161536 -0.152064 0.322056
0.259875 -0.232112 0.182010
0.483467 0.064250 0.120997
0.071373 -0.049841 0.327785
0.196894 0.327550 0.236994
0.073289 0.354150 0.066112
0.247714 -0.083861 -0.152285
0.396758 -0.122930 0.139187
-0.145334 -0.113033 -0.277543
0.305824 0.290289 -0.083867
0.321645 -0.073677 0.333566
0.400777 0.075054 -0.063475
0.115192 0.393944 0.040670
0.269428 0.279574 0.048805
0.390553 0.227465 0.122876
-0.103442 -0.002191 -0.261100
0.190457 0.322581 0.056828
0.103402 0.119322 0.344891
-0.186207 -0.302587 -0.093319
0.292701 0.195722 -0.187607
-0.013314 -0.010081 -0.354444
0.159969 -0.102336 -0.373699
0.003084 0.253003 0.163232
0.039922 -0.144103 -0.422988
-0.026340 -0.183284 -0.155625
-0.129217 -0.201425 -0.200672
0.256370 -0.124941 -0.077085
0.404385 -0.032109 -0.058751
0.374545 0.220856 0.075192
0.046905 0.233435 -0.054989
-0.076734 0.065683 -0.272452
0.229210 0.142675 0.362313
-0.464343 -0.180514 -0.076673
0.170978 0.164532 -0.291602
0.234726 0.123514 -0.272815
0.211048 -0.013149 -0.298366
0.169289 0.323487 0.250143
0.459951 0.070116 0.196601
-0.079842 -0.293939 -0.067013
0.366680 0.240260 -0.027861
0.104568 0.354071 -0.054864
-0.084453 0.044574 -0.089352
-0.119478 -0.309968 -0.039126
0.232687 -0.041705 -0.230234
0.281345 0.294239 -0.013093
-0.054082 0.161675 -0.069621
-0.047927 0.090092 0.018076
0.281292 -0.198424 0.123554
0.091329 -0.063203 -0.410379
0.300927 0.080451 0.440086
0.392631 -0.114665 0.180920
0.390898 0.066801 0.434708
0.216124 -0.114423 0.333902
0.223785 0.158765 0.358103
0.366083 0.065043 0.439890
-0.112254 -0.036759 -0.237613
0.100318 0.185324 0.304890
-0.455332 -0.165584 -0.127155
-0.240767 -0.422545 0.053144
0.286537 0.080408 0.418330
0.158825 0.217948 0.318855
0.143957 0.273879 0.295707
0.011954 0.115293 -0.343606
0.330388 -0.117318 -0.054078
0.351436 0.241881 0.246376
-0.217711 -0.180373 -0.243033
0.329502 0.255533 0.134161
0.220151 -0.048557 -0.266922
0.444407 0.001633 0.175729
0.322621 -0.045619 -0.101149
-0.060295 0.109888 -0.068870
0.472436 0.020491 0.063090
-0.228034 -0.153954 -0.183589
-0.246642 -0.146386 -0.246638
0.449288 0.062037 0.319181
0.310757 0.264044 0.043480
0.398886 0.243957 -0.175011
0.429175 0.095856 -0.046175
0.112556 -0.211506 0.019990
0.005676 -0.130447 -0.033990
0.172460 -0.075484 0.363835
0.460990 -0.022420 0.062537
0.458577 0.129060 0.014371
0.143327 0.033071 0.376725
0.105738 0.302948 -0.029558
0.362950 0.075664 0.444387
-0.100719 -0.035828 -0.340053
0.166280 0.049811 0.360594
0.455224 0.141678 0.013029
0.332595 0.249901 0.115993
-0.022254 0.200234 -0.130777
0.247956 0.130678 -0.243525
-0.019138 -0.057824 0.170019
-0.052821 0.187522 -0.169749
-0.202037 -0.364520 0.034122
-0.144620 -0.314626 -0.146592
-0.434500 -0.138852 -0.106139
-0.178632 -0.270516 -0.069690
-0.074396 0.141449 -0.221376
0.474256 0.162512 -0.056431
-0.100013 0.027614 -0.123186
-0.009856 0.079873 0.251924
0.353799 0.237671 0.232516
0.082306 0.292067 0.186227
-0.147409 -0.291778 0.038635
0.090709 0.236035 -0.164754
0.025351 0.219521 -0.108488
-0.085335 -0.066992 -0.125833
0.290836 0.076108 -0.193425
0.398027 -0.068522 0.245519
0.286010 -0.170276 0.005309
-0.069462 0.038587 0.039798
0.208992 0.358995 -0.155324
0.264859 0.326445 -0.153534
-0.033431 -0.061563 0.049030
-0.350132 -0.142869 -0.179579
-0.083097 -0.277198 -0.235325
0.009861 0.200194 0.220366
0.141455 -0.162089 -0.110027
0.119945 -0.235126 0.059324
-0.334764 -0.138150 -0.138853
0.155545 -0.245092 0.185100
0.395752 -0.120061 0.233994
0.035695 -0.090434 -0.423079
0.109075 -0.167565 -0.106258
0.321048 0.296219 -0.221197
-0.026842 -0.107899 -0.008427
0.397748 0.072129 0.432830
-0.098285 -0.303310 -0.050889
-0.410099 -0.198409 -0.120683
0.463978 0.008264 0.046646
-0.132512 -0.275199 0.028911
0.047698 -0.271894 -0.372306
0.431919 -0.035094 -0.021881
0.360099 -0.116652 0.279655
0.184794 -0.104655 -0.206587
0.254544 -0.120721 -0.096498
-0.249868 -0.372267 0.099249
0.177501 0.045676 0.368397
0.021517 -0.293297 -0.257090
0.141187 -0.139982 -0.415133
0.125146 -0.221430 0.216790
-0.342584 -0.232228 -0.177547
0.366348 0.264122 -0.148907
0.253794 -0.209192 0.246003
0.071295 -0.264167 -0.304944
0.046654 0.231047 0.036861
0.254716 -0.125434 -0.076379
0.126643 0.014571 -0.361244
-0.070054 -0.203721 -0.145224
0.037578 0.094767 -0.372613
0.430850 0.203559 0.233459
0.151903 0.222255 -0.180449
0.117814 -0.230663 -0.352319
-0.084663 -0.024192 -0.044206
-0.014090 0.042225 0.226516
0.294175 0.276204 0.179968
0.306901 0.278116 -0.030895
0.056557 0.220456 0.242938
0.236833 -0.240793 0.186654
-0.126377 -0.047804 -0.241021
0.279963 0.307818 -0.039324
0.060501 0.383865 0.045899
-0.162397 -0.253198 -0.073673
-0.455111 -0.186943 -0.157945
0.376041 0.270084 -0.243928
0.058069 0.009960 0.310601
0.119125 0.061979 0.347480
0.471249 0.043437 0.083272
0.363233 0.231637 0.277300
-0.167030 -0.254723 -0.077880
-0.030890 -0.100010 0.067133
0.387138 -0.074722 -0.072781
0.043880 -0.162730 -0.148049
0.298024 -0.191656 0.132710
-0.002372 0.155862 0.210214
-0.020758 0.012190 -0.346387
0.125414 0.289558 -0.008041
0.087850 -0.153989 0.282794
0.124680 0.229084 -0.182277
0.162195 -0.140007 -0.387026
-0.041282 0.054376 -0.318993
0.265328 0.311104 -0.048383
-0.128347 -0.269662 -0.182343
0.200675 0.191568 0.346399
0.061289 0.241029 0.240318
0.278566 0.309522 -0.045458
0.211611 0.303824 0.114340
0.062709 -0.090578 -0.426865
0.441537 -0.061331 0.085530
0.181728 0.181979 0.346694
0.178410 -0.159214 -0.095327
-0.103502 -0.260787 -0.291246
0.114208 0.219057 -0.259950
0.247349 -0.229918 0.230680
0.166460 -0.046013 -0.312086
0.107611 -0.042952 -0.351962
0.115633 -0.074567 -0.403566
-0.039727 -0.147768 -0.396654
-0.066285 0.059823 -0.278269
-0.071574 -0.001497 -0.280772
0.334988 0.243471 0.106764
0.218730 0.292367 -0.193715
0.399319 -0.005505 -0.070381
0.332638 0.264754 0.176134
-0.282303 -0.124135 -0.188950
-0.055740 -0.007740 0.020042
0.311419 0.053505 -0.096494
0.177367 -0.125300 -0.357052
0.021290 -0.178004 0.129297
0.387280 0.015929 -0.080354
0.370551 0.215780 0.082154
0.218249 -0.240442 0.079927
0.307919 0.014876 0.372020
0.425487 0.207970 0.197623
0.397223 -0.043850 -0.078929
-0.102226 -0.064985 -0.174164
-0.128970 -0.247973 -0.199959
0.110955 0.342795 -0.110435
-0.084428 -0.043186 -0.363085
-0.080323 0.083383 -0.259607
0.361966 -0.009604 -0.101041
0.178830 0.341229 0.188967
0.395151 -0.119976 0.131184
0.061083 0.410226 0.009664
0.334171 -0.137258 0.263439
0.022023 -0.168334 0.081992
0.252103 0.310040 -0.024044
-0.180577 -0.332091 -0.032159
0.123338 0.287202 -0.140409
0.233855 0.295543 0.278140
0.144213 0.133090 -0.330209
-0.086576 0.092094 -0.186229
-0.060752 -0.015040 0.014193
-0.357939 -0.110400 -0.145991
-0.001024 -0.067566 0.219442
-0.058943 -0.024730 0.042098
-0.168507 -0.153182 -0.266500
0.311169 0.291247 -0.054083
0.134684 -0.141318 -0.246468
0.019561 -0.286313 -0.248588
0.175744 -0.113788 0.347325
0.342546 0.208326 -0.206691
0.036058 0.167265 0.248548
0.226501 0.307114 0.241803
-0.091378 -0.018534 -0.334324
0.156469 0.031558 0.374605
0.055737 0.244848 -0.114097
0.393483 0.199057 -0.134241
-0.239229 -0.405046 0.056845
-0.061971 -0.040907 0.033202
0.460070 0.045585 -0.013943
-0.130689 -0.052429 -0.307045
0.142814 -0.118691 -0.412821
0.420661 0.101090 0.401347
0.185726 -0.171353 0.298931
0.056968 0.301405 0.153488
0.142577 -0.119384 -0.261912
0.069904 0.106550 -0.366244
0.217314 -0.156498 0.317971
0.288373 0.315029 -0.183100
0.378309 0.136386 -0.052065
-0.254752 -0.388462 0.090970
