-0.242000 -0.167449 -0.020583
-0.176686 -0.108969 -0.263748
0.161263 0.494787 -0.079116
0.051096 0.198001 0.036534
-0.097651 0.043174 0.051759
-0.202452 -0.096899 0.012930
-0.188496 -0.004111 -0.040882
0.073302 0.210891 -0.018403
-0.010238 -0.099257 0.179370
0.070679 0.250591 -0.140824
0.080618 0.248655 -0.004253
0.002402 -0.006290 0.159539
0.059604 0.204795 0.055168
0.102357 0.429926 -0.113575
0.016014 0.272205 -0.039634
0.131131 0.241231 0.015005
0.101065 0.383007 -0.024024
-0.103682 -0.098633 0.077802
0.087824 0.057270 0.221810
0.029064 0.151507 -0.159597
0.039014 0.242616 -0.103991
0.174030 0.405768 0.011383
0.202961 0.355722 -0.075650
-0.246335 -0.238009 -0.030953
0.028157 0.289614 -0.004668
0.022055 0.152347 0.104189
0.019705 0.246965 -0.051236
0.009463 0.104321 0.121922
-0.096524 0.093622 -0.029462
-0.054939 -0.393516 0.227894
0.145267 0.394419 -0.183783
0.071875 0.147065 -0.176403
0.082861 0.196289 -0.165608
0.088799 0.227386 -0.164681
-0.224025 -0.278794 0.094786
0.220868 0.439766 -0.069638
0.036456 -0.005445 0.198988
-0.222637 -0.271666 0.087683
0.027368 0.180249 -0.126927
-0.199203 -0.149280 0.083541
-0.204087 -0.058848 0.004960
-0.000218 0.251835 0.001847
-0.007922 0.024407 0.189932
0.123237 0.452519 -0.063678
0.035518 0.250651 0.060571
-0.135545 -0.048383 -0.265153
-0.158268 -0.408338 0.140455
0.167250 0.335629 -0.008298
0.134911 0.389495 -0.065133
0.194298 0.456231 -0.106716
-0.100059 -0.292834 0.195336
0.078938 0.187655 0.132702
0.057859 0.020163 0.174890
-0.187745 -0.108920 0.108093
0.052318 0.211686 -0.160307
0.085939 -0.003208 0.224029
-0.048193 -0.026953 -0.275877
0.021315 0.250402 -0.055713
-0.059801 0.036277 0.098121
0.190646 0.369198 -0.088270
-0.098739 0.095936 -0.080841
0.086329 0.168207 0.150197
0.134225 0.288086 -0.055272
0.053924 0.278190 -0.099270
-0.127254 0.046513 -0.002683
-0.182445 -0.193111 0.108919
0.206204 0.400040 -0.019626
-0.167471 -0.009182 -0.048506
0.001178 0.170438 0.094261
0.248797 0.412542 0.008124
0.251819 0.456887 0.025604
0.018470 0.226169 -0.200399
-0.062247 0.003884 -0.240232
0.146093 0.485558 -0.117749
0.001563 0.248096 0.002412
0.091298 0.228104 -0.132829
0.038920 0.159028 0.102213
0.155177 0.373678 -0.096395
-0.081352 -0.056418 0.073531
-0.111085 -0.195904 0.201642
0.173398 0.346726 -0.077788
0.040992 0.213547 -0.017852
0.062464 0.187857 -0.136125
-0.196699 -0.188480 0.140258
-0.064916 -0.237514 0.217540
0.071166 0.039377 0.231161
0.156971 0.336006 -0.095698
0.132779 0.248265 0.048205
0.043891 0.185935 -0.159620
-0.068609 -0.004264 0.096925
0.026549 0.219378 -0.045754
0.088809 -0.240222 0.310005
0.074644 -0.144848 0.290661
0.269131 0.429425 -0.004849
0.080263 0.337475 -0.099902
-0.161632 -0.010991 0.088376
0.190856 0.373113 0.029227
0.036219 -0.109568 0.246181
0.057842 0.243206 0.050267
0.113032 0.154998 0.158007
-0.097090 -0.285465 0.245133
-0.037258 0.084020 -0.223931
0.225726 0.409787 0.042180
0.209868 0.391310 0.052131
-0.109757 0.024581 0.113251
0.134767 0.387084 -0.111042
-0.106232 -0.022190 -0.257622
-0.023743 -0.003913 -0.270220
0.168843 0.417506 0.017441
0.198383 0.419685 0.001639
0.109340 0.409483 -0.154179
-0.044986 0.189904 -0.038872
-0.231011 -0.117992 0.018118
0.200161 0.322204 0.029032
0.113707 0.303473 -0.094464
-0.126213 -0.046638 -0.264873
0.183766 0.425542 -0.041911
0.266083 0.427249 0.004861
-0.200566 -0.444482 0.130242
0.039524 -0.039123 0.217951
-0.074325 0.009549 0.085065
-0.207134 -0.100617 -0.032387
0.138251 0.223235 0.021071
-0.098063 0.107546 -0.063260
0.175832 0.351231 -0.026326
0.017150 0.213120 -0.088673
0.069526 0.247050 -0.077473
0.122387 0.365732 -0.189505
0.096009 0.340783 -0.118392
0.069261 -0.250998 0.335789
-0.019907 0.023702 -0.288182
-0.187301 -0.268775 0.155243
-0.053866 -0.089565 0.198345
0.090222 -0.301800 0.298033
0.054783 0.226445 0.052473
0.062701 0.198061 -0.219882
0.154417 0.294010 0.060248
-0.188454 -0.407476 0.155637
-0.192579 -0.024691 0.018267
-0.121963 -0.110286 -0.287036
0.228349 0.427884 -0.102370
-0.068628 0.097416 -0.245418
0.121314 0.161172 0.142334
0.035302 0.047929 0.185633
-0.001435 0.162331 0.070546
0.123879 0.483464 -0.119704
0.179250 0.367539 -0.053910
0.122601 0.374964 -0.157298
0.029841 0.019844 0.198528
0.191743 0.415309 -0.008032
0.072320 0.231359 -0.092386
0.129703 0.324488 -0.064290
0.000671 0.218238 -0.034081
0.148549 0.257844 0.034420
0.032344 0.058336 0.201892
0.054255 0.232668 0.047575
0.026407 0.138514 -0.204872
0.011834 0.199687 -0.038185
0.175348 0.418106 -0.071593
-0.164306 -0.475015 0.145527
-0.181883 -0.390599 0.124112
-0.001819 0.248395 -0.051736
0.172614 0.411183 -0.038353
-0.010990 -0.113270 0.184722
-0.187873 -0.131802 -0.298883
0.175034 0.301523 0.062472
0.063946 0.251122 -0.004711
-0.091509 -0.269383 0.204153
0.067840 -0.223459 0.320034
-0.207471 -0.008180 0.002859
0.122155 0.443122 -0.131656
-0.057479 0.050923 -0.291653
0.184278 0.250498 0.035655
-0.093475 -0.149241 0.183194
0.181089 0.434631 -0.174088
0.160386 0.294000 -0.013482
-0.002120 -0.051543 0.178212
-0.076845 -0.048003 -0.252683
0.157113 0.274347 0.050929
-0.092641 0.054288 -0.261761
-0.189764 -0.205568 0.104582
0.033735 0.240138 -0.055779
0.073365 0.195271 -0.160322
-0.259712 -0.334430 0.003655
-0.091941 0.158952 -0.067798
-0.159970 -0.412324 0.127082
-0.121807 -0.003532 -0.269360
0.196962 0.447918 -0.055554
0.077924 0.367027 -0.082006
-0.120284 -0.007395 -0.242522
0.094079 0.166983 0.105460
0.011424 0.024825 0.131735
-0.063682 -0.376853 0.198635
-0.036267 0.233066 -0.072447
0.031788 0.238950 -0.140032
0.075895 0.143563 -0.226938
0.269556 0.409664 0.016924
0.180651 0.367658 -0.049321
-0.238523 -0.204676 0.008403
-0.181654 0.060690 -0.014668
0.077182 -0.079609 0.221757
-0.115647 0.052245 0.100515
0.029701 -0.060955 0.247892
0.009615 0.188809 -0.145105
-0.122469 -0.106408 0.147025
-0.120032 -0.109759 0.077868
-0.068857 0.208515 -0.078881
0.044189 0.044480 0.232703
0.072974 0.300137 -0.080963
-0.024597 0.037819 0.114914
-0.072566 -0.397389 0.209170
-0.115584 -0.011497 0.055189
0.006928 0.137745 0.104671
0.102204 0.246728 -0.117505
0.058551 0.216320 -0.039099
0.265616 0.445108 0.049460
-0.245125 -0.242119 -0.012316
0.077786 0.333015 -0.075391
0.156648 0.319592 0.047764
-0.028377 0.230499 0.013481
-0.078384 0.040901 -0.278667
0.176969 0.475534 -0.165345
0.123223 0.240074 0.099345
-0.058901 -0.133271 0.142495
0.078022 0.075899 0.169602
0.121558 0.402195 -0.070983
0.091940 -0.343633 0.295857
-0.245924 -0.199495 -0.009356
0.185421 0.413638 -0.010045
-0.067775 0.186179 -0.046874
-0.083573 0.219999 -0.061766
-0.108670 0.015493 0.066616
-0.147739 0.001648 -0.045951
-0.179198 -0.095875 0.117950
0.184026 0.311853 -0.102115
-0.134429 0.117143 -0.030060
0.209706 0.392077 -0.003612
0.033627 0.274967 -0.004506
-0.141180 -0.066261 -0.038826
-0.032071 0.031690 0.111567
0.210263 0.411957 0.036583
-0.175412 -0.058380 0.094065
-0.000952 0.009952 0.155816
-0.108796 0.107039 -0.023971
0.211427 0.452700 -0.104774
-0.153361 -0.145617 0.064204
0.162097 0.268258 -0.029981
-0.081995 0.099095 0.040932
0.205400 0.362232 -0.034850
0.073350 0.175443 -0.215135
0.122098 0.171008 0.104910
-0.014800 0.094329 -0.204680
-0.004048 -0.007712 0.114970
-0.135197 -0.072432 -0.243983
-0.006697 0.264165 -0.093782
0.090018 0.335914 -0.097457
-0.129329 -0.062057 0.129113
-0.174354 0.078051 -0.033149
-0.042250 0.014543 0.165814
-0.008382 0.039699 -0.258079
-0.150460 0.079093 -0.061419
0.074070 0.030554 0.237323
0.215375 0.447811 -0.122107
-0.000114 0.120084 -0.286784
-0.102307 -0.205573 0.223868
0.171646 0.393043 -0.177139
-0.159159 0.006480 -0.049710
-0.235872 -0.260512 0.111715
0.041919 0.205412 -0.058668
0.058553 0.284673 -0.134152
-0.058715 -0.198980 0.219527
0.201149 0.314767 0.041003
-0.202239 -0.305823 0.124568
0.000910 0.132535 0.082209
0.216402 0.472631 -0.057568
0.211179 0.431709 -0.072928
0.174038 0.315484 -0.007894
0.142820 0.362452 -0.185997
0.158892 0.420184 -0.010500
-0.273409 -0.405123 -0.011178
0.216937 0.273445 0.055037
0.065266 0.236176 0.073908
0.052035 0.272426 -0.110812
0.071040 0.316222 -0.022520
-0.029151 0.060962 0.141729
0.130240 0.163425 0.040149
0.079987 0.282127 0.058458
0.039341 -0.024237 0.244299
0.062249 0.006123 0.254582
0.176920 0.445502 -0.168733
0.002626 0.165659 -0.202962
-0.216303 -0.138427 0.014942
-0.114632 -0.102517 -0.311473
-0.070369 0.000241 0.138150
0.027846 0.187409 -0.131839
0.140898 0.386926 -0.072758
-0.205007 -0.117278 0.003957
-0.216560 -0.237826 0.082540
-0.049323 0.145373 -0.058953
0.271651 0.426396 -0.026192
-0.096045 0.084029 -0.032632
0.146211 0.264077 0.034097
-0.018418 0.139724 0.073298
0.014012 0.244307 0.017177
-0.160487 -0.081003 -0.036456
-0.003623 0.038953 0.183753
0.030779 0.270532 -0.040889
-0.065524 -0.133109 0.219544
-0.269975 -0.208535 0.026515
0.130055 0.345874 -0.110806
-0.215588 -0.160876 0.000089
-0.057260 -0.440929 0.184857
0.081279 0.140326 -0.210361
0.247647 0.427587 0.038748
0.125494 0.333541 -0.050217
0.065086 -0.281207 0.288634
0.096953 0.312618 -0.032954
-0.184670 -0.166655 -0.264367
-0.034462 -0.094930 0.195037
-0.279103 -0.213628 -0.004466
-0.167512 -0.029580 -0.059668
0.167062 0.281612 0.068446
-0.177439 -0.130896 0.093740
0.183403 0.376878 -0.098467
0.182452 0.399403 -0.116856
-0.032432 0.156246 -0.077827
0.184563 0.312005 0.042106
0.066058 0.201704 0.064990
0.127920 0.398835 -0.124626
-0.099662 0.093176 -0.018119
0.103318 0.244234 -0.148503
0.112143 0.445559 -0.105129
-0.215085 -0.252936 0.105969
0.170343 0.447005 -0.076593
0.065361 0.275160 0.010996
-0.252972 -0.103371 -0.024457
-0.274925 -0.223566 -0.005227
0.083533 0.320111 -0.096027
-0.153648 0.092622 -0.037803
0.181881 0.438127 -0.179483
-0.046195 0.090187 0.054213
-0.064681 0.213021 -0.041674
-0.049867 0.061304 -0.225337
-0.001910 0.012928 0.202169
-0.081035 0.087731 -0.066678
0.033864 0.178973 -0.162148
-0.032368 0.061350 -0.228474
0.082458 0.196474 0.037088
0.149640 0.309414 0.078035
0.151217 0.364067 0.007188
-0.080790 -0.053696 0.113142
0.180820 0.356646 0.030031
-0.208411 -0.180760 0.119476
-0.069045 -0.248593 0.219811
0.165613 0.357350 -0.118013
-0.210769 -0.209914 0.086531
0.016788 0.019725 0.204357
0.018828 0.197781 0.042786
0.133224 0.450147 -0.157962
0.161615 0.377500 -0.178774
-0.275874 -0.218122 0.030886
0.265557 0.466061 -0.023708
0.179621 0.449737 -0.062765
0.150453 0.277570 0.029396
0.010672 0.191309 0.029599
0.036685 0.222380 -0.162358
-0.051664 -0.051627 0.137513
0.174257 0.458491 -0.158676
0.027967 0.155226 -0.185205
-0.015180 0.256089 -0.091505
0.157818 0.391970 -0.192677
0.228317 0.478512 -0.016364
0.096110 0.327181 -0.162384
0.050887 0.070427 0.183281
0.022002 0.215787 -0.007902
0.238136 0.433466 -0.025596
0.108261 0.340813 -0.080928
0.069595 0.267275 -0.063180
0.089993 0.173847 0.062129
-0.180020 -0.299540 0.115556
-0.136350 -0.057187 0.142824
0.026767 0.226125 0.047631
-0.073674 0.194059 -0.050145
0.057464 0.280291 -0.069981
0.165497 0.367730 0.020672
0.207490 0.406430 -0.023089
0.123964 0.203936 0.014794
0.065079 -0.054980 0.212061
-0.011966 -0.107692 0.182027
0.187338 0.411948 -0.032497
-0.143369 -0.110354 -0.289680
-0.257601 -0.361335 -0.024665
0.075508 0.148290 -0.233384
0.068450 0.247485 0.020102
-0.031177 0.193423 -0.032430
-0.126138 -0.060244 -0.284682
-0.106771 0.135914 -0.053929
0.093263 0.295688 -0.083345
-0.149567 -0.167039 -0.324508
-0.279660 -0.240447 -0.001345
0.120828 0.295764 -0.041765
-0.098621 -0.087440 0.174851
-0.172890 -0.123743 -0.294117
0.147415 0.377389 -0.195526
-0.075123 0.167569 -0.028088
0.151654 0.327217 -0.057326
-0.184786 -0.303949 0.131646
0.236221 0.457981 -0.102336
0.161778 0.265858 0.057286
0.186311 0.412666 0.037159
-0.084101 -0.124821 0.171642
-0.158972 -0.107447 -0.308090
0.156200 0.314432 -0.066772
-0.083880 0.164780 -0.037773
0.238810 0.249171 0.030500
-0.052984 0.226926 -0.070526
-0.110662 0.103451 -0.067297
0.192492 0.424000 -0.015265
0.083077 0.312339 0.004239
0.125915 0.220291 0.062934
0.222168 0.473153 -0.063161
-0.032539 0.100319 0.047452
-0.230128 -0.209185 0.015098
-0.002701 -0.055007 0.130698
-0.048971 0.146037 -0.071783
0.066978 0.167936 0.120144
-0.005090 0.144422 0.014059
0.084549 0.441272 -0.093762
0.076551 -0.154408 0.300182
0.013697 0.235435 -0.039065
-0.151309 -0.030724 0.077637
-0.177973 -0.062496 -0.054919
0.030364 0.134408 -0.205275
-0.134894 -0.099116 -0.280210
-0.115552 0.003442 -0.278628
-0.062514 0.170784 0.043049
-0.061417 -0.435903 0.192753
-0.233955 -0.238471 0.119824
-0.113378 0.031244 0.076222
-0.223274 -0.049760 -0.034810
0.203970 0.230502 0.040486
0.145188 0.320536 -0.151467
-0.077892 -0.216007 0.216640
0.068725 0.151642 -0.227770
0.125810 0.363934 -0.076950
-0.109959 0.157737 -0.066628
0.070296 -0.234643 0.290171
0.082961 0.214345 -0.207356
-0.201133 -0.313175 0.131186
0.067107 0.243418 -0.119675
0.032762 0.207948 -0.178984
-0.158993 -0.109295 0.070411
-0.041016 -0.416560 0.235796
0.140522 0.418461 -0.157204
-0.048852 0.114723 -0.247214
-0.073233 0.195152 -0.032072
-0.063087 -0.025449 -0.285150
0.187821 0.401909 0.020712
-0.053218 0.228636 -0.110855
0.031767 0.198743 -0.214922
0.206246 0.352703 0.029922
0.237248 0.234582 0.039952
0.067385 0.220062 0.042555
0.052818 0.199015 -0.023637
0.171554 0.404678 0.037757
-0.167686 -0.154970 0.112785
0.063390 0.065301 0.173284
0.061207 0.028251 0.223935
-0.142469 0.023205 0.001901
0.032087 -0.132033 0.285965
-0.027505 0.237699 -0.106411
-0.208014 -0.121480 0.094901
0.161199 0.376113 -0.176213
0.176448 0.404108 0.032695
0.173039 0.469673 -0.166739
0.129691 0.216984 0.051558
-0.073161 0.046251 -0.297123
-0.008322 -0.042818 0.148021
0.005104 0.189851 -0.056662
0.127763 0.455202 -0.096372
0.058878 0.172969 -0.167994
-0.036560 -0.107249 0.218894
0.011689 -0.038437 0.148104
-0.032705 0.110849 -0.252175
0.104118 0.287040 0.019537
-0.069146 0.074645 0.077705
-0.174196 0.019774 -0.059412
0.192061 0.339771 0.042905
-0.145049 -0.051509 -0.248516
0.112727 0.255328 0.023069
-0.104815 0.099026 -0.062555
-0.004323 0.156634 0.033489
0.026256 0.193796 -0.240301
-0.004492 0.185017 0.046404
-0.109529 -0.104823 -0.278155
-0.075155 0.008422 0.056525
0.094447 0.357223 -0.101291
0.198573 0.383839 -0.007174
-0.123381 0.031149 0.112655
-0.077075 -0.362719 0.243683
-0.087013 -0.110309 0.202608
0.165585 0.464144 -0.072002
-0.099130 -0.165757 0.238252
-0.196912 -0.211691 0.108889
-0.217230 -0.350407 0.130324
0.118631 0.201525 0.013407
-0.151387 -0.055136 -0.270121
-0.068889 0.227747 -0.081216
-0.161695 0.063273 -0.030849
-0.060030 0.050415 0.134908
0.184574 0.402469 -0.010441
-0.083102 -0.059090 0.093452
0.220243 0.254988 0.041212
0.011036 0.073072 -0.247075
-0.077582 -0.096440 0.216363
-0.125397 -0.051431 -0.282462
-0.093582 -0.016462 -0.261576
-0.141806 -0.163188 -0.273636
-0.169830 -0.101613 -0.027619
-0.186004 -0.102215 0.081234
0.164084 0.295111 -0.044709
0.089239 0.189865 -0.203389
-0.170802 -0.092664 0.113687
0.097807 0.181898 -0.189611
-0.170072 -0.100755 -0.053247
0.056646 0.371603 -0.121404
-0.033726 0.131407 0.043942
0.095154 0.211827 0.028714
-0.278414 -0.208785 0.005286
0.109645 0.322338 -0.098684
0.041978 -0.227125 0.283859
0.084831 0.100583 0.180082
0.222547 0.437166 -0.114766
-0.015418 0.101557 0.086186
0.026733 0.105456 -0.204269
0.279505 0.442158 0.039979
0.042513 0.241306 -0.107407
-0.071577 -0.024483 -0.261715
0.219851 0.287929 0.039406
-0.066769 -0.001768 -0.329790
-0.105962 0.036219 0.105226
-0.065310 0.201306 -0.048551
0.229015 0.416514 0.051242
-0.035672 0.250494 0.007007
-0.038883 0.072067 0.041664
-0.079502 -0.247770 0.221853
0.020335 0.192916 0.033589
-0.260026 -0.183395 -0.024099
-0.131415 -0.000367 -0.259035
0.095892 0.146828 0.094513
0.059991 0.233433 -0.067184
-0.095541 0.159984 -0.074077
0.072974 -0.196709 0.309442
0.133724 0.361013 -0.037058
0.049203 0.211976 0.019523
-0.113831 0.003005 0.119281
0.123813 0.327464 -0.069298
-0.080752 0.132616 0.023302
-0.065511 -0.152816 0.218398
-0.209422 -0.116542 0.002325
-0.172753 -0.063271 0.080751
-0.093521 -0.014047 -0.294081
0.178543 0.320258 0.021897
0.115676 0.164409 0.161191
0.164804 0.293759 -0.036534
-0.073500 -0.023030 0.148797
0.189994 0.255172 0.060203
-0.030336 -0.080131 0.149369
0.082443 0.338038 -0.089034
-0.176461 -0.158137 0.087140
-0.017088 0.047850 0.113526
0.163188 0.385591 -0.133826
0.012766 0.229797 0.057997
-0.035631 0.063000 0.143192
0.008951 0.220704 -0.142042
-0.251072 -0.369141 -0.016227
-0.160445 -0.155117 -0.317473
0.142913 0.453462 -0.069871
-0.203772 -0.040477 -0.012151
-0.174325 -0.051428 0.013512
0.024527 0.239813 -0.126612
0.212679 0.401279 0.016691
-0.192914 -0.412323 0.135381
-0.086429 0.007307 0.114922
0.017488 0.197152 -0.093071
-0.027417 0.193512 -0.104450
0.195155 0.387819 -0.016057
-0.284421 -0.310227 -0.005303
-0.129953 -0.046386 0.061229
0.043555 0.300902 -0.084009
0.061799 -0.114068 0.277234
-0.171710 -0.090843 0.014302
0.088456 0.139271 0.163472
0.165334 0.455592 -0.177628
0.088710 0.418850 -0.095506
0.061863 0.219194 -0.191529
0.008174 -0.023977 0.128685
0.175441 0.417548 0.018839
0.258194 0.436084 0.020927
-0.286785 -0.232809 -0.019430
0.082526 0.062248 0.200507
0.078160 0.230432 0.076942
0.034841 -0.040959 0.207709
0.081918 0.257530 -0.084040
-0.017561 0.127698 0.104784
0.095431 0.174375 0.128120
0.184717 0.431081 -0.162216
-0.014298 0.040666 -0.276875
-0.068202 -0.310099 0.232690
-0.071284 0.241530 -0.082773
-0.147238 -0.042780 -0.020582
0.214907 0.372738 0.038592
0.150720 0.463386 -0.091865
-0.042086 0.132463 -0.060528
-0.095386 -0.009619 0.088696
-0.014242 0.102535 0.094394
0.208333 0.400722 0.036872
-0.257732 -0.374366 -0.018814
0.021363 0.109121 -0.218556
-0.119339 0.069919 0.011211
-0.131235 0.122539 -0.053886
0.012196 0.119889 0.128800
0.177910 0.421111 -0.148992
-0.269828 -0.247056 -0.025462
-0.042545 -0.413315 0.230094
0.081116 0.223458 -0.122379
0.166042 0.339146 -0.036946
0.047593 -0.213148 0.290228
0.058377 0.199252 -0.033136
-0.255250 -0.349200 0.009627
-0.202462 -0.212077 0.133421
0.093218 0.401674 -0.145551
0.126204 0.202277 0.047155
-0.083544 -0.165899 0.180255
-0.028942 0.120930 0.062892
0.163259 0.340821 -0.033593
0.158057 0.496775 -0.083811
0.169858 0.409738 -0.025453
-0.193761 -0.132092 -0.291018
-0.181894 -0.298416 0.134068
0.027400 0.179394 0.090933
-0.160441 -0.082967 -0.259843
-0.134600 -0.048243 -0.279352
-0.151757 0.019246 0.018274
0.095357 0.115275 0.154982
-0.161364 -0.043549 0.001030
-0.216689 -0.438048 -0.007348
0.079607 -0.241632 0.322242
0.054163 0.124478 -0.220552
0.271503 0.432284 -0.010835
0.176238 0.441048 -0.017748
-0.220520 -0.306158 0.103805
-0.258509 -0.363653 -0.049365
0.155070 0.275256 0.047407
0.187068 0.367077 0.000411
-0.011331 0.113603 0.137905
-0.281802 -0.170967 -0.010176
-0.049402 0.073098 -0.233754
0.123649 0.403244 -0.120245
0.092075 0.258498 -0.097863
-0.029529 -0.081187 0.164643
0.210360 0.246245 0.074484
-0.105974 0.004070 0.147420
-0.142802 0.011680 0.070627
-0.047851 0.090569 0.038047
0.098076 0.243323 -0.005548
0.180640 0.437444 0.033913
-0.051988 0.020486 0.144931
-0.197715 0.015221 -0.029638
-0.066114 0.219117 -0.037950
-0.097762 -0.043755 0.123293
0.012287 0.140063 0.117710
-0.001761 0.183445 0.070173
-0.028627 0.109785 -0.216859
-0.281608 -0.247918 0.020346
-0.255064 -0.256050 -0.000210
-0.036505 0.199156 -0.095739
-0.187339 -0.304081 0.130993
0.143907 0.435930 -0.167323
0.024122 0.145240 0.088892
-0.151273 -0.042760 -0.005596
0.079294 0.090617 0.169546
-0.226027 -0.414824 -0.008158
-0.034644 0.137909 0.034242
0.030773 -0.079355 0.272021
0.238425 0.414546 -0.011602
0.010905 0.272575 -0.107533
-0.070008 0.216664 -0.103854
-0.198904 -0.182989 -0.310184
0.155186 0.419876 -0.072254
0.083362 0.288204 -0.134451
0.172762 0.468954 -0.118105
0.068345 0.236858 -0.049741
-0.137163 -0.161946 -0.304358
0.132681 0.394647 -0.141935
0.034301 -0.023012 0.211680
0.050726 -0.066557 0.251546
-0.067434 0.038275 0.123368
-0.075681 -0.405298 0.212235
0.075413 0.305890 -0.104489
0.112440 0.252458 -0.119561
-0.121466 0.071914 -0.015166
-0.009318 -0.033404 0.165631
0.119550 0.222008 0.006896
0.092436 0.361243 -0.055047
-0.246708 -0.213002 -0.312215
-0.105379 -0.026637 -0.314371
0.129926 0.375230 -0.158482
-0.256675 -0.210838 0.037629
0.058591 0.191454 -0.000813
-0.040652 -0.398281 0.221224
-0.271957 -0.305700 0.038194
-0.209579 -0.147911 -0.016958
0.205731 0.423834 -0.099991
0.151892 0.454831 -0.053269
-0.101098 -0.195585 0.193091
0.185259 0.478018 -0.098860
0.087337 0.082343 0.207854
0.080521 0.207096 0.028186
0.018663 0.143527 0.105853
0.128381 0.433446 -0.067467
-0.186812 -0.396894 0.131763
0.208984 0.284292 0.027929
-0.003500 0.068591 0.130292
-0.093768 -0.278723 0.217099
-0.088457 0.001867 -0.299441
0.064769 0.218349 -0.070438
-0.135565 -0.005374 0.133862
0.085233 0.255816 0.014093
0.261822 0.444282 0.002399
-0.018257 -0.026989 0.204099
-0.127781 -0.045917 -0.256412
0.161938 0.404341 -0.034758
-0.240182 -0.273881 -0.037976
-0.051753 -0.447887 0.238931
0.124608 0.380233 -0.184828
-0.228719 -0.179897 0.002287
0.022194 -0.100987 0.263767
0.030057 -0.104346 0.247078
0.162482 0.287584 0.067528
0.028531 0.169372 -0.138609
0.137498 0.296406 0.000304
0.071669 0.199057 0.093991
0.210797 0.363501 -0.066117
0.036256 0.277638 -0.016000
0.105876 0.440503 -0.069285
-0.108551 -0.227558 0.234193
0.117067 0.269787 -0.096705
-0.061399 -0.398010 0.206698
0.095328 0.188777 0.047927
-0.180803 -0.375058 0.148140
0.015285 0.177856 -0.250528
-0.179008 -0.127336 0.146278
-0.056779 -0.054037 0.190139
-0.206757 -0.311317 0.120687
0.000222 0.120376 -0.270383
0.071377 0.117244 0.163803
-0.036268 0.272033 -0.106590
0.272888 0.463687 0.018046
0.097838 0.336134 -0.041998
0.138246 0.259302 0.035264
0.045225 0.216809 -0.007018
-0.108907 -0.203277 0.204327
0.119232 0.296127 0.025633
0.168567 0.391072 -0.150807
-0.174135 -0.205957 0.122281
0.126067 0.286065 0.036358
-0.095006 0.028283 0.106078
0.083503 -0.060134 0.224640
-0.221404 -0.179968 -0.311441
-0.015253 0.061233 -0.250738
-0.047937 -0.109708 0.159476
0.090742 0.341561 -0.062313
-0.228369 -0.403041 -0.004676
-0.011502 0.200302 -0.036110
0.059189 -0.210344 0.299993
-0.136432 -0.008110 0.052297
-0.172137 -0.488822 0.123780
0.181598 0.368505 -0.002328
-0.196282 -0.049383 -0.043991
0.140720 0.350004 -0.043906
-0.171331 0.047856 -0.045641
0.232435 0.386404 0.029133
-0.240793 -0.223932 0.030580
0.179659 0.376216 -0.035690
-0.020620 0.237168 -0.103733
-0.249768 -0.304582 -0.014157
0.185626 0.434558 0.046636
-0.175244 -0.035496 -0.051024
0.115646 0.235497 0.020287
-0.067402 -0.129572 0.205032
0.111156 0.398836 -0.123502
-0.125849 -0.053120 -0.245724
0.174902 0.342405 -0.106200
-0.205226 -0.143633 0.097396
0.025697 0.209960 -0.017025
0.121560 0.300130 0.029871
-0.222280 -0.366052 0.012578
0.058184 0.228425 -0.058520
-0.155430 -0.023698 0.122148
0.054531 0.342291 -0.081927
0.052664 0.226713 -0.185653
-0.015379 0.039651 0.117688
-0.000276 0.229945 -0.054569
0.133243 0.274303 0.015030
-0.074330 -0.001952 -0.266668
-0.065782 0.217242 0.000239
0.081419 0.253927 -0.041523
0.076567 0.251601 -0.175645
-0.285465 -0.219247 -0.007322
0.024047 0.197358 -0.033518
0.037186 0.226673 0.005840
-0.093501 0.189196 -0.040380
0.074615 -0.079030 0.244194
0.166147 0.424993 0.006580
0.023861 0.047882 0.208509
-0.204641 -0.349742 0.138207
-0.046104 -0.485838 0.221559
-0.255809 -0.236868 -0.028848
-0.005428 0.101135 0.142536
-0.064714 -0.240167 0.246546
-0.085740 -0.001928 0.088675
0.228392 0.403425 0.000614
-0.157926 0.011994 0.006193
0.095580 0.151555 0.127454
-0.041304 0.189078 0.012402
0.060230 0.072364 0.174419
0.193218 0.367880 0.033536
0.088577 0.266364 0.058128
-0.262800 -0.236862 -0.006768
-0.235595 -0.129824 -0.001058
0.030882 0.103110 -0.216870
-0.181472 -0.285212 0.104794
0.091921 0.044103 0.198278
0.042017 -0.022561 0.201689
-0.148498 0.016724 -0.022388
0.029444 0.163186 -0.174521
0.143757 0.273053 0.058565
0.132493 0.230238 0.003984
0.117752 0.413068 -0.168748
0.065530 -0.222457 0.339820
0.150028 0.285157 0.075449
-0.198071 -0.289473 0.133337
-0.053619 -0.003584 0.159956
-0.031472 0.238394 -0.017185
0.059072 -0.206154 0.317377
-0.093612 -0.281269 0.221984
0.078651 0.402107 -0.078482
0.063032 0.266803 -0.054089
-0.036060 -0.004972 0.186414
-0.078110 -0.255445 0.207477
0.085542 0.292710 0.003855
0.169542 0.308087 0.026517
-0.186574 -0.002102 0.004244
0.048186 0.299340 -0.055955
0.197485 0.344772 -0.049603
-0.225155 -0.259998 0.086459
-0.141385 -0.142325 0.121765
0.033597 0.044147 0.219551
0.022674 0.239477 -0.062493
0.104471 0.268724 -0.055017
-0.152280 -0.135963 -0.316391
-0.116806 -0.073396 -0.299183
0.018453 -0.022084 0.233692
0.182099 0.388614 0.073797
0.131020 0.311734 0.013064
0.195206 0.385794 -0.085675
0.038056 0.195626 -0.172659
-0.178898 -0.111330 0.139246
0.042673 0.260110 -0.126472
-0.123550 -0.099999 -0.304292
0.141619 0.200729 0.069807
-0.117552 -0.056233 -0.305841
-0.208064 -0.077836 -0.052303
0.174904 0.414016 -0.053237
0.094135 0.289592 -0.102129
-0.008483 0.087369 -0.284734
0.183779 0.410540 -0.093246
-0.087795 -0.006233 -0.260176
-0.239345 -0.113694 -0.025590
-0.017079 -0.009041 0.178268
0.004061 0.138365 -0.244437
0.007160 0.113315 -0.281055
-0.177832 -0.204920 0.141810
-0.218283 -0.209887 -0.317920
-0.146246 0.013781 0.105520
0.210744 0.398308 -0.025408
-0.056034 0.227670 -0.080671
0.020293 0.229981 0.062527
0.038930 0.255593 -0.069772
0.040968 0.207508 -0.002207
-0.022180 0.093305 0.114935
-0.188131 -0.048560 -0.074521
0.064812 0.193911 0.035644
0.075937 0.247620 0.071377
0.004111 0.224383 0.054756
0.168269 0.339021 0.040958
-0.233221 -0.240819 0.079472
0.059395 0.198026 -0.098384
-0.090861 -0.104457 -0.325189
0.137797 0.272032 0.066944
-0.135150 -0.021336 -0.024302
-0.058906 -0.359652 0.208934
-0.009990 0.044200 0.146955
0.099138 0.322554 -0.012831
0.048061 0.295128 -0.020561
0.086664 -0.001922 0.228797
0.229378 0.394464 0.001486
-0.203068 -0.109316 0.104090
-0.158672 -0.003716 0.011990
-0.094219 0.060060 -0.225768
-0.019804 0.085017 0.104362
0.030690 0.203438 -0.040392
-0.024006 0.151606 0.039500
0.211743 0.378075 -0.052706
0.008487 0.138861 -0.250714
-0.158202 -0.153412 0.113183
0.133776 0.448823 -0.081032
-0.100016 0.076095 -0.247958
-0.025228 0.144550 -0.059240
-0.076547 -0.156526 0.190905
0.040089 -0.195021 0.303228
-0.000216 0.057530 0.148040
-0.000297 0.170133 -0.247459
0.067253 0.083921 0.168275
0.045201 0.226215 -0.071490
0.049290 0.209986 -0.039307
-0.043707 -0.429151 0.232215
0.052893 0.342739 -0.128679
0.019650 0.153592 0.056552
-0.004328 0.179388 -0.090193
-0.180949 -0.130990 -0.285635
-0.174888 -0.081661 0.104967
0.177217 0.278477 0.069439
0.100821 0.295589 -0.113927
0.082149 -0.194264 0.282660
-0.068833 -0.374204 0.211134
0.069325 -0.139917 0.271892
0.191591 0.432769 0.011397
0.011206 0.175524 -0.056613
0.066523 0.108574 0.172125
-0.079637 0.096356 -0.059530
0.257978 0.439184 -0.028851
-0.156342 0.079234 -0.022710
-0.163515 -0.109509 0.113469
0.065617 0.243219 -0.073812
-0.033472 -0.098931 0.174163
-0.251242 -0.301855 -0.010048
-0.047176 0.209375 -0.106496
0.206481 0.450340 -0.135312
0.110600 0.195063 0.009754
0.112138 0.397143 -0.084911
0.116537 0.399725 -0.049832
-0.127176 -0.005496 0.072034
-0.046403 -0.134428 0.153768
0.160111 0.319337 0.019675
0.057463 0.135584 0.173230
0.046685 0.184941 -0.123705
-0.074141 -0.065738 0.167209
0.071488 0.348818 -0.152127
0.038275 0.255644 -0.119638
0.089937 0.384119 -0.047526
-0.053427 -0.020424 0.179903
-0.107682 0.062787 0.003635
-0.098106 -0.034521 -0.289026
0.255293 0.473606 -0.031573
0.059955 0.142920 -0.258838
0.202345 0.445896 -0.136788
-0.188278 -0.257446 0.143763
0.165545 0.483029 -0.099828
0.219176 0.418477 -0.002784
-0.090981 -0.206609 0.193360
-0.207056 -0.170503 0.119513
0.102900 0.204636 0.060013
0.211288 0.449410 0.058553
0.069939 -0.298286 0.305946
0.223572 0.424632 0.018357
0.123814 0.368820 -0.161866
0.118513 0.174740 0.075583
0.089246 0.234011 -0.020143
0.086365 0.317379 -0.082403
-0.147132 0.023844 -0.059996
0.201546 0.230253 0.019757
-0.174452 -0.410427 0.107496
0.064876 0.337167 -0.121114
0.039488 0.250684 -0.083145
0.143622 0.276896 -0.066751
0.154975 0.384668 -0.055805
-0.270505 -0.307476 -0.016045
0.092869 0.155166 -0.211961
0.226012 0.484014 -0.010869
-0.152073 0.015571 -0.049312
0.228132 0.268983 0.055594
0.056009 -0.083831 0.237338
-0.129847 0.063173 -0.041434
-0.019131 0.241747 0.016798
0.129782 0.237086 0.065986
-0.251442 -0.375164 0.014107
0.036592 -0.004174 0.201081
-0.253654 -0.375238 0.016576
0.176204 0.269513 0.042390
0.016305 0.246572 0.035061
0.042113 0.064409 0.158806
-0.186062 -0.113698 -0.020281
-0.254975 -0.332279 0.006033
0.061262 -0.197615 0.309687
0.122758 0.345695 -0.089400
-0.043068 -0.038724 -0.290672
-0.136182 -0.068481 0.150275
-0.142838 0.062216 -0.048850
-0.104564 0.042489 0.122570
-0.037279 0.189062 0.039958
0.099657 0.113703 0.121647
-0.113854 0.003484 -0.267040
0.174699 0.417548 -0.171713
0.103639 0.184387 0.049657
0.026315 0.274848 -0.107707
0.183104 0.384811 -0.051569
0.007340 0.170324 0.054107
-0.178744 -0.040544 -0.003744
-0.219700 -0.301611 0.115512
-0.103724 -0.217036 0.201225
0.029306 -0.047294 0.237231
0.213504 0.384951 0.050704
0.007275 0.185432 0.053363
-0.002082 0.139627 0.123359
-0.033938 0.143364 0.051708
0.076817 0.342885 -0.108079
-0.002693 0.082867 0.114980
0.199225 0.424232 -0.018575
-0.087422 0.191023 -0.076199
-0.038578 0.183346 -0.099879
-0.264960 -0.258604 0.012715
0.086784 0.190880 -0.142593
0.043275 0.301438 -0.079621
-0.029899 0.291018 -0.088421
-0.084166 0.075524 0.048106
0.063355 0.262259 -0.113859
-0.247572 -0.384176 -0.011086
0.102285 0.293792 0.003100
-0.090868 -0.018194 0.131298
0.102397 0.359478 -0.020146
-0.233713 -0.244596 0.108965
0.018496 0.133652 0.099932
0.134884 0.350297 -0.136358
-0.151203 0.013745 -0.010433
-0.166979 0.041337 -0.018926
-0.118006 0.122759 -0.040765
-0.004808 0.087778 0.142818
0.147359 0.408345 -0.157950
-0.032744 0.097343 0.107825
-0.253154 -0.138985 -0.017698
0.058697 -0.284569 0.302595
0.171106 0.370981 -0.014054
0.141364 0.429046 -0.066761
-0.106720 -0.187779 0.195659
-0.074948 -0.411598 0.234450
-0.088224 -0.263399 0.231304
-0.245822 -0.247649 -0.014845
0.159902 0.377736 -0.060724
0.221564 0.427447 0.000709
-0.105787 0.038458 0.100439
-0.122790 -0.136047 -0.297209
0.005108 0.255977 -0.124219
0.143301 0.240754 0.052420
-0.190461 -0.324306 0.124613
0.153517 0.363288 -0.071791
0.062543 0.195302 -0.093705
-0.019800 -0.022309 0.141932
0.265725 0.429136 0.007247
-0.060836 -0.432708 0.235388
-0.022040 0.248587 -0.080685
0.133651 0.231299 0.047130
0.054036 0.106831 0.170580
0.139807 0.284819 0.090224
0.205556 0.264091 0.021795
-0.032578 0.051573 -0.217226
-0.154856 -0.005482 -0.043722
-0.095245 -0.290940 0.217697
0.139463 0.180993 0.017254
-0.039444 -0.375856 0.215198
0.070421 0.062085 0.207424
0.005306 0.237729 -0.009940
0.122231 0.376656 -0.164734
-0.096812 0.166886 -0.055298
-0.132292 -0.089785 0.052055
0.001771 0.109585 0.132174
-0.126586 0.018906 0.114024
-0.160135 -0.007284 0.091009
-0.029508 0.193004 -0.006764
0.057821 0.037974 0.249361
0.065628 0.213515 -0.033597
0.043861 0.153889 -0.168734
0.075302 0.328194 -0.158170
-0.153869 0.076023 -0.019253
0.198803 0.256864 0.012332
0.061049 0.160873 0.138189
0.021221 0.183971 -0.043981
-0.079389 0.023715 0.078239
-0.249581 -0.418703 0.004342
-0.159260 0.072276 -0.048463
0.008199 0.158605 -0.176513
-0.021436 0.116692 -0.274832
0.064036 -0.118328 0.258263
-0.202142 -0.140240 0.086904
-0.224035 -0.108448 -0.037707
-0.230872 -0.370153 0.014468
0.033278 -0.006654 0.240210
0.020167 0.230910 -0.116501
-0.246481 -0.219718 0.017648
0.132949 0.247990 0.016221
-0.046351 0.006588 -0.290096
-0.091375 -0.172627 0.212659
0.048004 0.291876 -0.048902
-0.140348 -0.079336 -0.300141
-0.182796 -0.022456 0.020353
0.252154 0.392668 0.002309
0.176362 0.367059 -0.072099
-0.170218 -0.162855 -0.285001
0.174554 0.400581 0.001943
-0.062224 0.114118 0.033594
0.056940 -0.050759 0.199025
-0.013197 0.081271 -0.270960
0.054206 -0.082596 0.268398
-0.217205 -0.149282 -0.012607
-0.059562 -0.318486 0.233398
-0.200934 -0.056955 0.030593
0.179865 0.408927 0.003435
-0.041327 0.052467 -0.227677
-0.107933 -0.129148 -0.295554
-0.127028 -0.075774 -0.275171
0.211312 0.331212 0.021646
-0.084198 -0.072716 -0.290557
-0.081820 -0.070799 0.208412
-0.139892 -0.018855 0.127459
-0.021906 0.103072 -0.279386
0.013165 0.197293 -0.255704
0.042968 0.139136 -0.245779
-0.154702 0.051666 0.004026
-0.171077 -0.102952 0.131466
-0.034876 0.080894 0.148425
-0.240390 -0.086262 0.016512
-0.137151 -0.092149 0.073240
-0.119459 0.154334 -0.044886
0.215583 0.420851 -0.005431
0.161779 0.452049 -0.176661
0.183587 0.379029 -0.001874
0.101485 0.135152 0.157258
0.126152 0.397429 -0.161534
0.068878 -0.097014 0.271040
0.124119 0.332617 -0.176816
0.033460 -0.046683 0.208658
0.081423 0.177217 -0.226524
0.110779 0.195023 -0.143620
-0.032135 -0.080615 0.192755
0.067040 -0.262481 0.301294
-0.223562 -0.274597 0.157862
-0.082390 -0.277065 0.259429
0.081144 0.240165 0.076779
0.066232 0.175556 0.085195
-0.223997 -0.238073 0.006817
0.109194 0.415364 -0.138337
-0.092333 -0.346505 0.215988
-0.038268 -0.070038 0.162654
-0.098273 0.138539 -0.067891
0.124715 0.413214 -0.028103
-0.101150 0.060386 -0.267914
-0.040371 -0.097465 0.200394
0.071943 -0.264354 0.286972
0.089207 0.037557 0.216642
-0.163537 -0.068363 0.077815
-0.145037 -0.112002 0.056857
0.088061 0.409586 -0.096190
-0.004467 0.093594 0.105776
0.143391 0.455222 -0.080026
0.131705 0.352070 -0.088713
-0.138527 0.023967 -0.009621
-0.066565 0.068389 0.058714
0.061663 0.170014 0.110391
-0.065249 -0.161246 0.195947
-0.242867 -0.138578 -0.038235
0.219417 0.443037 -0.030906
-0.061222 -0.297240 0.222875
0.227876 0.473850 -0.007667
0.024430 -0.050697 0.242325
-0.021579 0.116733 0.058572
-0.004538 0.050540 -0.272845
-0.138648 0.061886 0.003638
0.069355 0.165069 -0.250650
-0.237402 -0.108136 -0.002446
-0.290815 -0.296862 -0.020762
-0.080269 -0.019858 -0.242031
0.183062 0.452514 -0.068006
-0.208245 -0.175425 0.121794
-0.102501 -0.000335 -0.254990
0.097458 0.276923 -0.121478
-0.053662 0.018745 0.125094
-0.022472 0.237277 0.003036
0.172721 0.443057 0.011063
0.222704 0.453176 -0.139688
-0.127196 -0.056133 0.063791
-0.014232 0.131747 0.028032
0.044653 0.272426 -0.082011
-0.054783 0.094350 -0.267638
-0.012064 0.116166 0.123477
-0.195837 -0.026968 -0.037778
0.160839 0.432440 -0.034978
0.132124 0.331418 -0.163884
-0.052557 -0.017133 0.141366
0.074493 0.295089 0.034845
0.225325 0.366869 -0.010586
0.100722 0.405772 -0.147958
-0.045344 -0.022680 0.176584
-0.051511 0.045967 0.103594
0.105408 0.431827 -0.097773
0.098655 0.228587 -0.005306
-0.191471 -0.395571 0.136849
0.176663 0.408094 -0.158582
0.100137 0.341790 -0.086488
0.133512 0.269258 -0.049615
-0.048983 0.015098 -0.279274
-0.042486 0.117401 0.031704
-0.112447 -0.029947 -0.274758
-0.067690 0.127684 0.018042
-0.043036 -0.005064 -0.261497
-0.130789 0.011280 0.083343
0.128410 0.302693 0.018500
0.086774 -0.249259 0.295494
0.183476 0.406723 0.052252
-0.032659 0.114037 0.103265
-0.064578 -0.172294 0.224455
0.164552 0.392753 -0.011903
-0.119489 0.105572 -0.028593
0.080935 0.176299 0.089353
0.138749 0.423462 -0.011050
-0.211118 -0.200769 0.148025
-0.255001 -0.266642 0.006358
0.002905 0.180477 -0.066541
-0.018514 -0.044134 0.161007
0.097485 0.365847 -0.147469
0.163548 0.322782 -0.088405
-0.246762 -0.271696 0.004206
0.052396 0.142534 0.091817
-0.242621 -0.227965 0.134131
0.062181 0.128430 0.152408
-0.091392 -0.031691 0.068794
-0.192507 -0.124413 -0.290632
0.003532 0.156358 0.014793
0.078495 0.251420 0.089170
-0.118006 0.057373 0.088150
0.082417 0.374473 -0.063062
0.063272 0.227912 -0.025037
0.075344 -0.085132 0.243447
-0.206863 -0.123353 -0.038515
0.074771 0.212870 0.092811
-0.103714 -0.043907 0.130309
0.220349 0.461689 -0.012291
0.225959 0.472271 -0.092552
0.086433 0.219449 -0.159850
-0.248738 -0.431416 -0.022449
-0.266328 -0.320538 -0.028651
-0.069127 -0.179307 0.237606
0.190840 0.410674 0.042062
-0.054273 -0.146983 0.184670
-0.002625 0.139719 -0.216567
0.255623 0.446633 -0.025349
-0.246386 -0.097179 -0.025887
0.068248 -0.078994 0.265714
-0.213060 -0.151629 0.012599
-0.110053 0.120092 -0.064697
-0.055848 -0.379070 0.234508
0.134235 0.282021 0.072723
-0.035660 0.038925 0.125927
-0.038454 -0.002979 0.111061
0.175879 0.433728 -0.177022
0.096529 0.143239 -0.176084
-0.043333 0.146866 -0.000391
0.141094 0.287799 0.072276
-0.136602 0.007113 0.061058
-0.024477 0.097570 0.125274
-0.198337 -0.086425 0.002029
-0.052953 -0.323069 0.213017
-0.248949 -0.329428 -0.007158
-0.281989 -0.199448 -0.033794
-0.048295 0.059002 -0.214641
0.004821 0.068045 0.132888
0.027703 0.202156 -0.154045
-0.055765 0.206224 -0.042077
-0.171741 -0.085370 0.045182
-0.081639 0.017610 0.072193
0.077046 0.386822 -0.083862
-0.093904 0.024547 -0.249780
0.036631 -0.003263 0.176363
0.060252 0.225005 -0.088662
0.032476 0.208955 -0.065690
-0.235156 -0.099971 -0.015231
-0.190419 -0.138384 -0.276046
0.033907 0.219308 -0.086773
0.124704 0.406416 -0.039148
-0.007196 0.083169 0.141702
0.093995 0.080898 0.181085
0.079403 0.225616 0.001075
-0.052156 -0.331428 0.225081
0.072302 -0.175885 0.301618
-0.052821 -0.030579 0.121801
-0.046113 0.013550 0.182939
-0.124324 0.063564 0.077828
0.091272 0.018168 0.194905
-0.085513 -0.141416 0.216190
-0.015597 0.150629 -0.254421
0.199406 0.298743 0.031002
0.055761 -0.210442 0.318675
0.080537 0.069070 0.224475
0.111363 0.409131 -0.153575
0.086971 0.411717 -0.123447
-0.053297 0.114809 -0.239804
-0.072083 0.169638 -0.073136
-0.094345 -0.162744 0.196984
0.012571 0.228610 0.037634
-0.085875 -0.008989 0.077740
-0.002028 0.095982 0.100565
-0.103600 -0.007366 0.131974
0.146107 0.194090 0.032156
-0.240203 -0.124112 -0.042248
-0.076552 0.043112 0.092638
0.219371 0.473318 0.014671
0.041442 -0.245608 0.295849
-0.000048 0.070465 -0.276566
0.131802 0.310552 0.005469
0.073826 0.078724 0.181296
0.155008 0.436696 -0.045447
0.058639 0.204405 0.059237
-0.161590 -0.146894 -0.288962
0.098729 0.299903 0.054975
0.131217 0.421591 -0.040426
-0.067541 -0.040642 0.134420
0.088212 0.196130 -0.089730
0.060482 0.204072 -0.054288
0.096631 0.270424 0.006623
0.090778 -0.304813 0.319460
-0.163636 -0.144285 0.084784
-0.093860 0.037455 0.114704
0.190274 0.447590 0.019018
-0.000650 0.011414 0.124521
0.088264 0.176354 0.137808
0.120145 0.307819 0.025626
-0.174981 -0.059779 0.001331
0.059514 0.250691 -0.040649
0.222253 0.390324 0.036269
0.008432 0.094044 -0.285408
-0.195667 -0.271846 0.150314
0.075930 0.004285 0.216435
-0.015897 0.042434 -0.285447
0.126068 0.324498 -0.093975
-0.077542 -0.053299 0.189446
-0.071706 0.013405 0.088787
-0.208218 -0.316142 0.112496
0.091512 0.338607 -0.085921
0.196281 0.428298 -0.118052
-0.061256 0.071535 0.067851
0.008444 0.165149 0.094685
-0.097101 0.118151 -0.047847
0.001287 0.193523 0.076130
-0.118652 0.085596 -0.026894
-0.051940 -0.035468 -0.294688
0.133172 0.414761 -0.075185
0.008650 0.197269 -0.098057
0.243277 0.455445 0.032006
0.190989 0.421075 0.044535
-0.151871 -0.017505 0.056603
0.057022 -0.060351 0.218596
0.067279 -0.203083 0.287848
-0.087848 -0.176558 0.207579
-0.115667 0.043124 -0.048708
-0.130001 0.005370 -0.046527
-0.007987 0.199316 0.046514
-0.261609 -0.341498 -0.023702
-0.081280 -0.022705 0.114586
0.137264 0.356637 -0.023419
-0.053061 0.231819 -0.053184
-0.086812 -0.311294 0.210073
0.026271 0.232324 -0.059708
0.141091 0.356504 -0.039912
0.169145 0.412414 0.054245
-0.095751 0.015543 -0.305963
0.066682 -0.185261 0.275078
-0.083423 0.100649 0.098974
-0.124405 0.117243 -0.030067
0.021573 0.252843 -0.038851
0.029588 0.220586 0.088702
-0.181932 -0.070843 0.021269
0.037564 0.096752 -0.211569
0.126485 0.428128 -0.069156
-0.240775 -0.371693 -0.033342
-0.243891 -0.215708 -0.015666
0.034197 0.130548 0.108395
-0.259555 -0.304211 -0.002997
-0.021294 0.134924 -0.079123
-0.128127 -0.004666 0.146922
-0.006718 0.250259 0.005579
0.041712 0.148834 -0.212513
0.081024 0.311810 -0.052097
0.059052 0.344093 -0.090789
-0.199925 -0.446051 0.118209
-0.044198 0.096977 -0.238798
0.197087 0.497626 -0.085987
0.201878 0.444235 -0.140433
-0.215275 -0.101938 -0.024249
0.084319 -0.048422 0.203259
-0.150038 -0.018036 -0.020299
0.102077 0.250871 -0.150615
0.177974 0.399024 0.002745
0.195311 0.442656 -0.046813
-0.038706 -0.093154 0.152803
0.083000 0.284457 -0.022170
-0.035487 0.170538 -0.041710
0.186881 0.459072 -0.050294
-0.197801 -0.113847 0.105089
0.061402 -0.019570 0.199120
0.034221 0.226108 -0.174294
0.171418 0.362292 -0.062612
0.129361 0.407792 -0.179149
-0.216824 -0.229303 0.087977
-0.171688 -0.158030 -0.313996
0.088957 -0.169162 0.272633
-0.043398 0.206013 0.004963
0.236458 0.284738 0.046883
-0.182246 0.030498 -0.042449
0.154556 0.310415 -0.054611
0.012683 0.225357 -0.028176
0.238843 0.378489 0.015769
0.004860 0.165138 0.106148
0.178170 0.428195 -0.164759
-0.115252 -0.018354 0.062347
-0.014014 -0.083494 0.212662
-0.099716 -0.048659 0.077940
-0.045116 0.062586 0.084240
0.084076 0.336463 -0.094120
-0.009675 0.249934 0.009845
0.033750 -0.012378 0.201064
-0.191296 -0.272621 0.128273
-0.063008 -0.009159 0.161457
0.224718 0.401943 -0.097256
-0.123086 0.026164 0.067180
-0.139705 -0.143737 -0.303126
-0.084492 0.182589 -0.057983
-0.230286 -0.341091 -0.022806
-0.174533 -0.085704 -0.272960
0.022854 0.255603 -0.118069
0.088853 0.389683 -0.117908
-0.213517 -0.175925 0.140863
-0.203104 -0.118236 -0.035131
0.066349 0.352195 -0.121218
0.208726 0.394677 -0.051416
-0.003916 0.238527 -0.109296
0.199019 0.437944 -0.011027
0.225675 0.446653 -0.087365
0.087377 0.037511 0.215826
-0.247711 -0.253149 -0.019489
0.193440 0.426998 -0.097065
-0.145804 -0.029085 -0.021980
-0.115978 0.011161 -0.269038
-0.238400 -0.141730 -0.035454
0.140412 0.453639 -0.091324
0.110300 0.304343 -0.044745
-0.048561 0.175544 -0.103095
0.129250 0.238961 0.089422
-0.004797 -0.035990 0.156475
-0.058036 -0.119341 0.235244
-0.037800 0.152645 0.007556
0.065017 0.270688 0.052609
0.024875 0.158644 -0.243884
0.156560 0.446247 -0.174212
-0.009531 0.027090 -0.226025
-0.178507 -0.352750 0.148749
-0.096124 -0.060720 -0.304595
0.078519 -0.230542 0.313453
0.083740 -0.321657 0.325872
-0.159754 -0.026631 0.107647
-0.004709 0.185311 0.030295
-0.194982 -0.078304 0.020150
0.086897 0.148065 0.149804
0.111708 0.332212 -0.162575
0.072387 0.393075 -0.063045
0.142050 0.450800 -0.098772
0.014607 0.114171 0.109414
0.073641 0.096159 0.148444
0.087745 0.297690 0.061207
0.181710 0.404135 -0.086486
0.037064 0.134340 -0.264012
-0.029960 0.213350 -0.100768
0.037393 0.012673 0.188746
-0.204750 -0.253969 0.161837
0.120236 0.364576 -0.140359
0.248649 0.449128 -0.035994
-0.211859 -0.404252 0.132209
0.174893 0.429932 -0.164121
0.077264 -0.068593 0.232914
-0.201341 -0.142057 -0.025625
-0.133166 -0.095351 0.145133
-0.001649 -0.072732 0.174945
0.108507 0.387669 -0.168518
0.077752 0.286538 -0.130334
0.083823 0.365589 -0.063738
-0.039139 0.142621 -0.078713
0.160671 0.490475 -0.145421
0.019620 0.192844 -0.115121
-0.099100 0.029339 0.048977
0.084616 0.190209 0.026974
-0.225795 -0.087852 0.018866
-0.195722 0.014230 -0.013355
0.080785 -0.092079 0.240474
-0.197898 -0.202034 0.138151
0.166129 0.394416 0.018241
0.056633 0.275742 0.020873
-0.188753 -0.124915 -0.263081
-0.096144 -0.009946 0.111838
-0.216303 -0.177440 0.098991
0.261757 0.449989 0.018735
-0.166938 -0.070075 0.068459
0.093107 0.243344 -0.065784
0.016088 0.240851 -0.161489
-0.045402 0.125779 0.056816
0.068421 -0.246560 0.288786
0.088140 0.285168 -0.091241
0.165002 0.421904 0.039047
0.178153 0.418756 -0.035483
-0.156940 -0.157962 -0.283180
0.009276 0.208481 0.081038
0.129689 0.435157 -0.123112
-0.174428 -0.163677 -0.293220
0.002725 0.111964 -0.260114
-0.225382 -0.210361 -0.292544
0.017127 0.171592 0.092403
-0.052044 0.159354 -0.024792
-0.057455 0.135332 -0.042487
0.079086 0.252953 -0.091130
-0.041603 0.097393 -0.221257
0.029712 0.180431 -0.004494
0.202632 0.234782 0.020814
0.072770 0.341900 -0.072183
0.193970 0.385502 -0.115944
0.095366 0.310772 -0.107168
0.203558 0.364126 -0.012494
0.134810 0.449028 -0.086679
-0.088325 0.060298 -0.276886
-0.014178 0.053277 0.107153
0.170037 0.316022 -0.061995
0.196236 0.295113 0.034671
-0.032611 0.155422 -0.052168
0.024149 0.035578 0.206434
0.099261 0.300470 0.024283
0.197915 0.296109 0.037202
-0.065675 0.101191 -0.049340
0.154880 0.483349 -0.128238
-0.255218 -0.252156 0.113314
0.039734 0.004662 0.181102
0.127961 0.314330 -0.014457
-0.251651 -0.244626 0.009654
-0.071367 0.015159 0.082448
0.005457 0.116406 -0.270505
-0.189188 -0.146427 0.075687
-0.024812 0.196776 -0.110639
-0.084517 -0.159825 0.230126
-0.211874 -0.306689 0.093668
0.108795 0.383097 -0.028302
-0.070271 -0.449301 0.198741
0.150951 0.359637 -0.017752
0.034216 0.256027 -0.082626
0.204404 0.429139 0.061332
-0.129750 0.029038 0.093810
0.003645 0.079892 -0.229678
0.149767 0.435851 -0.034655
-0.197321 -0.317963 0.137908
-0.244229 -0.382490 0.003667
0.115568 0.318476 -0.124177
-0.138401 -0.134175 -0.286720
0.064125 0.384375 -0.078534
0.097980 0.441759 -0.094787
-0.048167 -0.028293 0.170005
-0.012262 0.024373 0.108184
-0.042151 -0.102999 0.166871
0.108755 0.334726 0.028533
-0.072415 0.138243 -0.054642
0.080351 -0.323253 0.307149
0.068540 -0.023902 0.264247
0.183858 0.470593 -0.120197
0.182330 0.437638 -0.149530
0.196452 0.428440 -0.122686
-0.078158 0.027715 0.109931
0.194099 0.239160 0.009249
-0.158072 -0.456393 0.118231
0.121245 0.428637 -0.080955
0.027312 0.276493 0.039756
-0.070939 0.059892 -0.266669
-0.260722 -0.356552 -0.017297
0.079230 0.119878 0.126804
-0.170126 -0.323242 0.141562
-0.070571 -0.087433 0.193670
-0.072232 0.041910 0.114259
0.110722 0.414091 -0.099218
0.057231 0.219473 -0.051905
0.142769 0.361905 -0.061783
-0.041215 0.004652 -0.246324
-0.192494 -0.342807 0.148641
0.118353 0.288844 -0.033873
-0.085030 -0.103256 0.219233
0.094148 0.274066 -0.018977
0.188421 0.427229 -0.070032
-0.134847 0.058806 -0.008828
0.094295 0.306589 0.007984
0.135712 0.303236 0.037463
-0.192091 -0.023156 0.007102
-0.262654 -0.178371 -0.035846
-0.115771 -0.017028 -0.277522
0.176693 0.452385 -0.080961
0.087535 0.207116 0.125653
-0.004831 0.082812 0.153505
-0.262889 -0.249352 -0.031897
0.176180 0.328036 0.061481
-0.069681 -0.239743 0.258975
0.087938 0.191762 -0.194016
0.097556 0.100075 0.177309
0.098823 0.389309 -0.067759
-0.025332 0.077469 0.112609
0.056661 0.331966 -0.144796
-0.092767 -0.084683 0.105293
-0.045027 -0.051336 0.192624
0.075170 -0.193259 0.318669
0.042783 0.122422 -0.262564
0.055462 0.056745 0.228205
0.149144 0.361695 -0.102962
-0.116750 0.095607 -0.016157
-0.103393 -0.007904 -0.266649
-0.000778 0.225875 -0.132959
-0.088469 -0.209229 0.230012
-0.060092 -0.013999 -0.310328
0.016007 0.099254 0.114117
0.093877 0.066211 0.180332
0.173250 0.452034 -0.007398
0.119521 0.294499 0.036071
0.033793 0.178798 0.050885
0.088801 -0.175840 0.297550
0.154711 0.485002 -0.144540
0.028179 0.183683 0.086852
0.106513 0.314488 -0.001830
0.102032 0.331449 -0.052803
-0.207070 -0.243694 0.143694
-0.007398 0.163622 0.047605
-0.099816 -0.181199 0.201014
0.123870 0.331841 -0.154432
-0.000155 0.037614 0.123268
0.134839 0.328755 -0.140691
-0.114435 -0.094066 0.075277
0.045249 -0.168143 0.267456
-0.036257 0.138890 0.059019
0.091756 -0.307610 0.302358
0.158287 0.344651 -0.118133
-0.208715 -0.295280 0.162031
-0.214601 -0.091558 0.009884
-0.084999 0.001806 0.106155
-0.238548 -0.425518 -0.004228
-0.169105 -0.156629 -0.325614
0.133830 0.424967 -0.158062
0.129917 0.298280 0.023255
-0.272280 -0.319771 0.003153
-0.008764 -0.006243 0.127402
-0.102122 0.010185 -0.260695
0.103170 0.407790 -0.043785
-0.010509 0.220520 -0.016027
-0.205957 -0.081257 0.009150
0.096335 0.181323 0.145544
-0.116107 0.156920 -0.055517
0.165452 0.467320 -0.098615
-0.138700 0.055517 0.011516
-0.235034 -0.334586 0.006697
0.125305 0.337115 -0.057573
-0.112107 -0.124705 -0.299787
-0.227239 -0.154414 -0.014630
0.008530 0.232275 0.017943
0.059427 0.220590 -0.097075
-0.090330 -0.265521 0.209630
-0.029666 0.045198 0.126759
-0.275894 -0.258289 0.002152
-0.174711 -0.157880 -0.336273
0.153495 0.440781 0.023034
0.066604 0.058622 0.193004
-0.032565 0.187748 0.026333
-0.001605 0.207832 -0.038349
-0.198017 -0.310558 0.136347
-0.020661 0.110742 -0.277034
-0.232195 -0.146124 -0.004502
-0.081673 -0.011997 -0.285402
-0.030623 0.189149 -0.039119
0.121630 0.452473 -0.100791
