-0.030203 -0.058776 0.488226
0.055020 0.229374 -0.040616
0.036586 0.013281 -0.412750
0.008024 0.011477 0.401478
0.021238 0.016629 -0.223518
-0.032158 0.159936 -0.347369
-0.038162 0.020062 -0.462054
0.022225 0.017449 -0.365783
0.015132 0.200834 -0.114128
0.062872 0.194691 -0.064935
0.015958 0.040740 -0.406487
-0.036194 0.170318 -0.205035
0.031705 0.103861 -0.040585
-0.020227 0.001845 -0.137491
-0.045618 0.110052 -0.418201
-0.031841 0.104119 -0.042039
-0.003443 -0.028749 -0.139817
-0.005509 -0.026335 0.229979
0.027825 -0.008776 -0.099877
0.008610 0.242273 -0.043329
0.046298 0.213986 -0.036350
-0.051653 0.138791 -0.346822
-0.027531 0.042037 -0.428043
0.025786 0.091436 -0.216430
-0.004994 -0.023377 0.488796
-0.010487 0.024556 -0.171088
-0.020033 -0.019735 -0.147306
0.042826 0.108668 -0.407277
0.028705 0.037033 -0.481900
-0.001000 -0.032302 -0.096386
0.013537 0.140732 -0.451521
-0.036098 0.151269 -0.328885
-0.037375 0.029554 -0.457777
-0.004729 -0.001229 0.483502
-0.017575 0.009262 0.195727
0.040874 0.208237 -0.061695
0.013161 -0.033143 0.481872
0.007052 -0.036152 -0.151195
0.013272 0.082290 -0.310840
-0.035538 0.174751 -0.146901
-0.049517 0.144783 -0.200366
0.003689 -0.017713 0.373740
-0.012820 0.026317 -0.137852
0.030023 0.203741 -0.031208
-0.025875 0.008849 0.032828
0.003167 0.177963 -0.014926
-0.011273 0.138153 -0.463094
0.049724 0.144782 -0.004597
0.002615 0.011277 0.120185
0.017694 0.005966 0.011147
-0.018062 -0.041216 0.481562
-0.065694 0.116203 0.013975
0.066547 0.152979 0.003003
0.048482 0.152987 -0.194571
0.026929 0.101920 -0.111774
0.038344 0.155865 -0.315486
-0.055743 0.124487 -0.066461
0.011496 -0.019275 0.196288
-0.038277 0.111620 -0.054078
0.029364 0.065083 -0.484546
0.038530 0.006028 -0.413817
0.033508 -0.012386 -0.413120
0.006906 0.025098 -0.158173
-0.031548 0.214857 -0.067218
0.028699 -0.004943 -0.227747
-0.028663 0.078174 -0.325276
0.003747 -0.021719 0.412775
0.026003 0.158714 -0.422902
-0.062999 0.153776 -0.028089
-0.018028 0.004996 0.033490
-0.021362 -0.025172 -0.359172
-0.046820 0.099629 -0.405518
0.036589 0.192983 -0.065696
-0.028080 0.101816 -0.456732
-0.025256 -0.012569 -0.289330
0.013168 0.011089 -0.023439
0.019737 -0.006632 -0.060897
0.036249 -0.007781 -0.073790
-0.025555 0.007038 -0.051753
-0.012777 0.110566 0.021013
0.008919 -0.023115 0.087391
0.024243 0.181739 -0.306267
0.051505 0.148456 -0.179929
-0.023859 -0.003544 0.247555
-0.015399 -0.166725 0.439729
-0.019544 0.024278 -0.320286
-0.023228 0.005451 -0.118634
-0.018667 0.028898 -0.408082
-0.042271 0.135191 -0.387330
0.008377 0.012024 0.264583
-0.007470 0.207686 -0.039944
-0.000509 -0.024775 0.159702
0.012732 -0.088780 0.499677
0.041147 0.187511 -0.123555
0.038031 0.085716 -0.449887
-0.047209 0.123408 -0.119973
-0.033714 0.084911 -0.195702
-0.001809 0.026290 -0.366756
0.023999 0.000862 0.089881
0.006868 -0.262767 0.445266
0.037097 0.181856 -0.368342
-0.012512 0.090505 -0.371474
-0.057820 0.165037 -0.098018
0.018112 0.168968 -0.226250
0.040853 0.130423 0.004503
0.015312 0.167397 -0.013454
0.022863 0.002486 -0.263939
0.022092 0.221240 -0.042752
-0.010339 0.029236 -0.279315
-0.000196 0.005499 0.422248
0.001157 -0.021432 0.097101
0.028106 0.216360 -0.076213
0.011815 -0.113328 0.450975
0.009877 0.020645 -0.187654
0.053814 0.144117 -0.349715
0.006965 0.008067 0.252072
0.022241 0.007297 -0.354756
-0.015966 0.007784 0.205380
0.035966 0.088679 -0.301910
-0.009803 -0.021692 0.178106
0.048283 0.151139 -0.262552
0.036633 0.146612 -0.311765
-0.032296 0.097343 -0.234843
-0.020186 0.196422 -0.109870
0.007088 -0.019916 0.463615
0.039917 0.186311 -0.084322
-0.033447 0.000933 -0.022368
0.004052 0.026431 -0.067377
0.025233 0.191252 -0.125888
-0.017094 -0.025586 0.037326
-0.001814 -0.027621 -0.185723
-0.017942 0.227177 -0.043080
0.005396 -0.017450 0.299016
0.018959 0.019489 -0.478894
0.005045 -0.046977 0.505982
0.003079 -0.022992 -0.356432
-0.010661 0.183676 -0.018360
-0.049517 0.152612 -0.177387
-0.015927 0.014573 -0.153504
0.033169 0.046288 -0.479227
-0.089029 0.167240 -0.013275
0.043172 0.153347 -0.144924
0.014703 0.021278 -0.096524
0.003466 0.008897 0.416292
0.021890 0.104964 0.017676
0.013476 0.005536 0.269993
0.042292 0.001025 -0.422980
-0.016821 0.032584 -0.387891
0.047142 0.119437 -0.177939
-0.003838 0.010352 0.376559
-0.010451 0.014403 0.079358
-0.050987 0.106350 -0.306526
0.009142 0.015727 -0.479563
-0.024471 0.007974 -0.274030
-0.011664 -0.001709 0.310378
-0.029880 -0.014509 -0.365877
-0.033986 -0.009995 -0.315060
0.031624 0.126394 0.007020
-0.008453 -0.029098 -0.415837
-0.027920 0.104766 -0.027969
-0.022830 0.237049 -0.045257
0.003191 -0.014829 0.350680
-0.009461 -0.022014 0.229361
0.005113 -0.011341 0.283491
0.026596 0.086630 -0.394276
0.022145 -0.005011 -0.332583
0.015890 0.074582 -0.339810
-0.030724 0.189117 -0.025509
0.022676 -0.026625 0.035666
-0.022342 0.071490 -0.480808
0.021535 0.093062 -0.489416
-0.023717 0.204277 -0.038513
0.008062 0.025878 -0.222706
-0.004651 -0.016561 0.460331
0.026831 0.175209 -0.359490
0.040920 0.153292 -0.387101
0.017930 0.173122 -0.234723
0.045828 0.123156 -0.005972
-0.016816 0.008017 0.023053
0.003620 0.089700 -0.236390
0.043052 0.174648 -0.079490
-0.016724 -0.008373 0.305275
-0.033457 0.184707 -0.117038
-0.013148 0.090943 -0.075872
-0.015049 -0.000749 0.118511
0.010779 -0.070431 0.499994
0.027591 0.087167 -0.382048
0.007359 0.081132 -0.497604
-0.003262 -0.115466 0.480451
0.018483 0.171909 -0.367349
0.004525 0.083065 -0.221442
-0.047641 0.136202 -0.159866
-0.023232 0.108935 -0.001855
-0.002970 0.257660 -0.061883
-0.010347 0.085724 -0.183311
-0.042870 0.228282 -0.053182
-0.017840 0.207495 -0.067577
0.018206 0.037603 -0.386738
0.035859 0.156811 -0.403878
-0.037242 0.062103 -0.452025
-0.009236 -0.026812 -0.081168
-0.020319 0.057635 -0.428852
0.012749 -0.001878 -0.479376
0.015265 0.161083 -0.427371
-0.018514 -0.226815 0.434576
-0.004156 -0.023415 -0.153283
-0.040301 0.111526 -0.156582
0.002960 0.009976 0.225297
-0.040310 0.156161 -0.352863
-0.001936 -0.086154 0.467696
-0.050004 0.105224 -0.414243
0.027398 0.090462 -0.349514
-0.008167 -0.005390 0.371797
0.036613 0.082364 -0.443363
-0.054594 0.125840 -0.102274
-0.043049 0.124883 0.015308
-0.029840 -0.007372 -0.386565
0.006690 -0.008560 0.231001
-0.005157 0.016044 0.288816
-0.004668 0.011761 0.263166
0.002759 0.194971 -0.028128
-0.016571 0.078811 -0.365289
-0.010140 0.013784 0.148445
0.030895 0.167480 -0.343506
0.002183 0.022348 0.035937
0.047749 0.130277 -0.220119
0.017349 0.009596 0.282738
0.018517 -0.001956 0.201775
0.074361 0.204047 -0.048230
0.012634 0.010909 0.157713
-0.024474 -0.011374 -0.298318
-0.037713 0.150913 -0.329986
0.026914 -0.002605 -0.384592
-0.001148 0.185102 -0.185969
0.016226 0.009884 -0.467990
-0.004210 -0.085848 0.476152
0.038046 0.156897 -0.374225
0.010589 -0.016056 -0.456080
-0.007039 0.011529 0.336487
0.011732 -0.028559 -0.397533
0.004542 -0.019837 -0.045349
-0.005200 -0.007403 0.477581
-0.036996 0.032635 -0.450735
-0.006601 0.184644 -0.279979
0.043137 0.107194 -0.236069
0.009233 0.066180 -0.503066
0.012370 -0.014555 -0.014412
0.048401 0.139849 -0.016103
0.013618 -0.146910 0.437192
-0.012934 -0.001966 0.233390
0.021093 0.078906 -0.362444
0.023556 0.084249 -0.221441
0.017828 0.046957 -0.429145
0.036453 0.154042 -0.394066
-0.005800 0.080008 -0.363776
0.015149 0.014731 -0.070024
0.038309 0.176319 -0.178004
-0.010670 0.025401 -0.274546
0.051248 0.147151 -0.255479
-0.049327 0.106942 -0.452425
-0.012145 0.028680 -0.368753
0.059553 0.151621 -0.042562
0.021872 0.007616 -0.255923
-0.002341 0.010385 0.040001
0.046528 0.123821 -0.321751
0.024600 0.008105 0.024531
0.018887 0.178493 -0.208771
0.002374 -0.007482 0.476908
0.081097 0.159099 -0.003522
0.010204 -0.019784 0.367920
0.049534 0.121020 -0.344461
-0.001392 -0.026841 0.057249
0.029073 0.002464 -0.075818
0.056867 0.131134 -0.113738
-0.011011 0.007192 0.255674
-0.037169 0.147564 -0.319779
0.038573 0.091270 -0.161129
0.016073 -0.028036 -0.310345
-0.016315 0.119196 0.014466
-0.012139 -0.136407 0.450575
-0.000971 0.168231 -0.010338
0.033738 0.169418 -0.279301
-0.065429 0.137851 -0.071981
0.030091 0.170600 -0.194132
0.004265 -0.026603 -0.402827
0.035445 0.171305 -0.175986
0.009672 -0.019899 0.244097
-0.034991 0.084297 -0.330982
-0.000691 0.178312 -0.256913
0.002328 0.021495 -0.386871
0.039949 0.156259 -0.386667
-0.029752 0.005507 -0.287788
0.014029 -0.000696 0.193599
0.032688 0.000114 -0.444926
-0.040243 0.213898 -0.035275
-0.000783 0.081005 -0.279180
-0.086035 0.177394 -0.018725
-0.020179 -0.004959 -0.458153
-0.017782 0.001429 -0.013703
0.020652 0.001106 0.117174
-0.041036 0.162729 -0.351950
-0.032451 0.011022 -0.250100
0.033606 0.094695 -0.409026
-0.011480 0.119594 -0.488445
0.010422 0.151052 -0.012486
-0.013062 0.168993 -0.380017
-0.012117 -0.012939 0.336767
-0.033958 0.186113 -0.141877
0.013138 -0.002482 0.193275
-0.013509 0.017762 0.033446
0.023336 0.157642 -0.428841
0.009619 0.089658 0.005576
-0.048761 0.166954 -0.071055
0.030034 0.065560 -0.482546
-0.007208 0.159190 -0.435781
-0.018773 0.141492 -0.457937
0.009674 -0.028928 -0.249779
-0.013576 0.020639 -0.237301
-0.014054 0.080534 -0.322232
-0.004332 0.101288 -0.029553
-0.017203 0.028561 -0.157648
-0.023595 -0.007302 -0.005657
-0.028431 0.108324 -0.472959
0.010579 0.086297 -0.156377
-0.050428 0.153776 -0.131440
-0.021389 -0.016785 -0.210303
0.008160 0.016485 -0.084242
0.017170 -0.018120 -0.058776
-0.026619 0.014613 -0.330747
-0.011335 0.168655 -0.424081
-0.020281 -0.023432 0.451815
-0.027700 -0.015819 -0.230294
-0.040845 0.131832 -0.416899
-0.048158 0.109482 -0.181435
-0.009968 -0.143924 0.443191
0.010233 0.007272 0.136308
0.045134 0.142515 -0.308764
0.048645 0.163519 -0.147477
0.042897 0.104468 -0.286794
0.036913 0.114729 -0.034818
-0.040330 0.098427 -0.215150
-0.025684 0.001896 -0.076204
-0.032998 0.183143 -0.184519
-0.013677 0.085294 -0.329050
0.062609 0.143142 -0.050268
-0.045018 0.124965 -0.380357
0.009269 0.079954 -0.318978
0.001745 -0.011214 0.237921
0.025897 0.002126 -0.310731
-0.048608 0.194329 -0.064489
-0.064918 0.174900 -0.047883
-0.053784 0.140482 -0.264185
-0.010106 -0.101857 0.453661
0.019679 -0.006941 -0.089536
0.049611 0.127680 -0.218941
0.008643 -0.024043 -0.038521
-0.041334 0.173040 -0.180282
-0.033237 0.042174 -0.425390
-0.001011 0.030613 -0.313165
-0.022050 0.006425 -0.174706
-0.023277 -0.024531 -0.321444
-0.018879 0.088175 -0.295162
-0.020069 0.111770 -0.011271
0.053310 0.147377 -0.292172
0.022622 0.015132 0.053608
0.018096 0.158045 -0.007014
0.040283 0.163612 -0.342514
-0.005614 0.028702 -0.499560
-0.037667 0.095496 -0.433718
-0.004977 0.005511 0.324382
-0.044805 0.163010 -0.220378
-0.067251 0.179948 -0.054451
-0.006192 0.008783 0.283727
0.051474 0.123340 -0.014445
0.015101 0.007446 0.118739
-0.001029 -0.011899 0.062126
-0.012420 0.086095 -0.133540
0.019414 -0.021130 0.181201
0.017516 0.167293 -0.344767
0.034781 -0.016040 -0.303997
-0.012636 -0.012384 0.204403
0.015196 -0.017078 -0.198851
-0.000695 0.010894 0.230782
-0.061071 0.179625 -0.067544
-0.001241 -0.149122 0.431850
0.026539 0.010816 -0.221519
-0.050224 0.115667 -0.287103
0.066468 0.158944 -0.002619
-0.026240 0.003117 -0.095983
-0.012632 0.008294 -0.259294
0.013181 -0.086917 0.476917
0.051324 0.204301 -0.036040
0.045431 0.106100 -0.238481
0.066177 0.149967 -0.012457
-0.021875 0.178548 -0.341813
-0.043457 0.093987 -0.409487
0.014071 0.095675 -0.032733
0.003294 0.098925 0.026393
-0.017851 0.102811 -0.480172
0.020392 0.186216 -0.142494
-0.037907 0.122622 0.014839
0.029326 0.169793 -0.130945
-0.011954 -0.016415 -0.450272
0.009527 -0.032502 -0.300534
0.072572 0.128041 -0.004890
0.025395 0.108526 -0.473091
-0.002979 -0.137252 0.435405
-0.053484 0.137936 -0.137916
-0.013494 -0.009718 0.466316
-0.016274 0.202390 -0.038022
-0.027673 0.159675 -0.397636
0.073423 0.175714 -0.021353
0.063295 0.146690 -0.067126
-0.020121 0.002472 -0.037567
0.059297 0.162517 -0.062050
-0.006874 -0.027946 -0.160664
-0.011334 0.022552 -0.308488
-0.061116 0.132909 -0.125307
-0.047234 0.108921 -0.155054
-0.004283 -0.008645 -0.461822
0.001436 0.154398 -0.435894
0.051530 0.136722 -0.286935
-0.003642 -0.162826 0.452768
-0.024962 0.123094 0.002949
0.006648 0.099642 -0.068761
0.010610 -0.024519 -0.429236
-0.066781 0.136821 0.003585
0.049542 0.121281 -0.134411
0.025221 0.206370 -0.099317
-0.009535 -0.025889 -0.375967
-0.043725 0.123564 -0.306189
0.024373 -0.009564 -0.051087
0.043365 0.241310 -0.049459
-0.029120 0.151194 -0.429804
0.010402 -0.010221 0.379510
0.038374 0.100577 -0.310460
0.002465 -0.012119 0.150156
-0.028358 0.003899 -0.356379
-0.025956 0.008136 -0.264656
0.014473 -0.026299 -0.167860
0.027466 0.173588 -0.169419
-0.020850 0.083582 -0.354224
-0.015066 -0.029134 -0.356598
-0.029494 0.047920 -0.405471
-0.007439 0.094616 -0.027891
-0.006267 -0.171179 0.447235
-0.061091 0.146566 -0.054346
0.047363 0.131234 -0.282886
0.010131 0.024648 -0.215802
0.025853 -0.000209 -0.127540
-0.019527 0.002794 0.094842
0.015699 0.164359 -0.405046
0.058137 0.152514 -0.045621
-0.003305 0.020465 -0.170566
-0.028388 -0.019894 -0.202333
0.010253 -0.009690 0.094224
-0.024714 0.005358 -0.003539
0.041195 0.159722 -0.181348
0.033442 -0.000343 -0.188365
0.076296 0.179448 -0.027034
0.039547 0.128477 -0.437379
-0.037990 0.168451 -0.138410
-0.016699 0.131281 -0.464428
-0.028971 -0.024982 -0.343097
0.000713 -0.031551 -0.272766
-0.026634 -0.011850 -0.185928
-0.032996 0.167109 -0.278830
0.045724 0.148299 -0.400587
0.001418 -0.021056 0.315993
-0.018084 -0.017950 0.226118
-0.027154 -0.003561 -0.223685
0.048714 0.124306 -0.151442
-0.021380 0.087444 -0.191102
-0.040425 0.147025 -0.221166
-0.021622 -0.005831 -0.140633
-0.003743 0.080549 -0.234628
0.004294 0.018893 -0.071038
-0.002895 0.036148 -0.373475
0.005853 0.160022 -0.436184
-0.035636 0.011146 -0.456404
-0.012506 0.170155 -0.343623
-0.066443 0.182448 -0.020347
0.048467 0.134129 -0.121938
-0.009874 -0.003451 0.312912
-0.005460 -0.077301 0.491462
-0.015850 0.212222 -0.083887
0.009627 0.000445 0.455795
0.044347 0.142272 -0.034250
0.024315 0.175152 -0.252830
0.051306 0.163287 -0.006494
-0.014674 -0.184718 0.450232
0.000568 0.009333 0.130697
0.027008 -0.004903 -0.206520
0.047298 0.130509 -0.283605
0.013196 0.060529 -0.415564
-0.016659 0.010621 0.052993
0.031783 0.013154 -0.422313
0.015942 0.010402 -0.025084
0.013569 0.004173 0.346432
0.004914 0.097149 -0.089805
0.012707 0.007511 0.108667
0.006634 -0.018600 0.345800
0.026646 0.173764 -0.189452
0.030688 -0.009001 -0.255404
-0.016427 -0.031165 -0.188568
-0.053965 0.182756 -0.067546
0.042756 0.111051 -0.121916
0.030150 0.087434 -0.309082
0.016365 -0.023634 0.028080
0.014724 -0.016187 0.258697
0.011759 0.017434 0.122988
-0.076015 0.164257 -0.017280
0.024433 0.181295 -0.137560
0.046302 0.177068 -0.020572
-0.047403 0.213936 -0.026388
0.066893 0.192938 -0.066230
0.003869 0.086628 -0.206558
-0.050687 0.142475 -0.281988
-0.059647 0.168550 -0.010539
-0.071664 0.136967 0.006014
0.017593 -0.014650 -0.322106
-0.032307 0.084311 -0.208305
-0.022746 -0.010104 -0.425283
0.007802 0.170713 -0.399991
-0.038322 0.107977 -0.354012
-0.022635 0.078034 -0.359749
0.006775 -0.026533 -0.384179
0.020311 -0.014702 0.343424
0.012483 0.076567 -0.250020
0.011164 -0.000879 0.426287
-0.034083 0.105904 -0.252158
-0.006094 0.007426 0.297543
-0.046117 0.117676 -0.325378
-0.012193 0.144859 -0.005617
-0.018823 0.183179 -0.266616
0.055499 0.126632 -0.013932
-0.014249 0.016528 -0.008745
-0.002301 0.002739 0.441785
0.022155 -0.025217 -0.084503
0.006923 -0.011976 0.360593
-0.046400 0.125667 -0.194488
0.024289 0.074908 -0.434497
-0.015186 0.067299 -0.503842
-0.002749 -0.041494 0.497280
0.018328 -0.002618 -0.204449
0.001651 0.033313 -0.396968
0.012371 0.085094 -0.172575
0.004198 0.088444 -0.496004
-0.015444 -0.026040 -0.273040
0.064415 0.154551 0.006515
0.027380 0.085540 -0.486906
-0.012062 -0.013807 -0.145373
0.034907 0.013388 -0.434340
-0.054477 0.144576 -0.151125
-0.002884 0.022886 -0.111397
0.018023 -0.005077 0.023430
0.017162 0.197847 -0.114779
0.026508 -0.012500 -0.129359
0.050046 0.117548 -0.211456
-0.016516 0.047224 -0.416411
-0.014200 -0.019008 0.109290
0.043789 0.116345 -0.034441
0.046533 0.206819 -0.052859
-0.023883 0.082456 -0.382514
-0.015598 0.004129 0.431477
-0.056430 0.133704 -0.044416
0.008770 0.101550 -0.032416
-0.060471 0.206304 -0.039297
-0.003801 0.016219 -0.052358
0.027465 0.077241 -0.489025
-0.003973 0.028873 -0.303729
-0.040946 0.106892 -0.381290
0.016364 -0.005575 0.415855
-0.009233 0.004161 0.227000
0.004681 0.167482 -0.378821
-0.006889 -0.015743 0.002267
0.038914 0.150890 -0.398478
0.011354 -0.037029 0.476275
0.049379 0.127149 -0.188100
-0.051241 0.127193 -0.015424
0.033412 0.210057 -0.065452
0.044281 0.192532 -0.126505
0.026611 0.154274 -0.012277
-0.051652 0.175236 -0.051902
-0.017095 0.084939 -0.376321
0.038843 0.108832 -0.401948
0.051482 0.143351 -0.367414
-0.061119 0.129840 0.005148
0.005638 0.016295 0.388135
-0.038290 0.089632 -0.151651
0.044685 0.124726 -0.366600
-0.006430 0.089197 -0.101121
0.051819 0.116754 -0.367958
0.034017 0.097040 -0.267915
-0.015461 0.099344 -0.100231
0.001722 -0.035334 -0.256228
0.028259 0.088974 -0.341723
-0.030276 0.092722 -0.101439
0.047511 0.165894 -0.010380
0.052480 0.111894 -0.122329
0.020819 0.153759 -0.440073
-0.061014 0.218629 -0.047967
-0.054060 0.129773 -0.154625
0.009736 0.230973 -0.048766
-0.006990 0.082216 -0.357050
0.040265 0.100759 -0.439233
-0.000523 -0.189032 0.450152
-0.030374 0.097865 -0.259216
0.033683 -0.006644 -0.374280
-0.020610 0.007936 0.033895
-0.031624 0.008525 -0.221532
-0.011875 0.015272 -0.296416
0.026366 0.084308 -0.137403
0.074737 0.145823 0.001607
0.016977 0.014622 -0.227188
-0.017245 -0.020171 -0.261243
0.064723 0.146693 -0.095150
0.039218 0.102353 -0.150331
0.009432 0.063203 -0.423945
0.014781 0.006486 0.371573
0.048233 0.128404 -0.381827
0.051432 0.130686 -0.320675
-0.030231 0.010483 -0.436630
0.021021 -0.022856 0.209878
0.001546 0.183715 -0.386956
0.053904 0.179001 -0.066697
-0.024373 0.042309 -0.412458
-0.021872 0.163112 -0.266906
-0.017873 -0.012594 -0.137721
0.005533 0.065532 -0.492645
0.051078 0.119721 -0.335582
-0.018625 0.019100 -0.247846
-0.035854 0.008746 -0.432368
-0.009302 0.012997 -0.235848
0.001499 -0.025577 0.457385
0.018123 -0.024534 -0.152578
0.063239 0.171220 -0.048562
0.002475 0.037126 -0.399216
-0.059701 0.130491 -0.009525
-0.039216 0.156051 -0.211426
0.020025 -0.000882 0.340445
-0.047034 0.173379 -0.028187
-0.022391 0.017568 -0.477667
-0.063743 0.128929 -0.271057
0.004223 0.002687 0.326712
-0.000931 -0.018576 -0.061599
-0.000270 0.007223 0.338570
-0.039956 0.132175 -0.410767
-0.031641 0.096346 -0.459787
-0.012100 0.183715 -0.225253
-0.078019 0.171778 -0.017562
0.046190 0.140933 -0.426714
-0.045250 0.025723 -0.445887
-0.050766 0.124464 -0.063213
-0.046187 0.105363 -0.384821
-0.022793 -0.004853 0.082145
-0.008052 -0.016524 0.104068
0.002712 0.023794 -0.275742
0.007856 -0.003241 0.463534
-0.030959 0.115261 -0.007902
-0.004213 0.020113 0.381737
0.005770 -0.103836 0.468915
0.030481 0.158232 -0.294712
-0.029542 -0.004378 -0.346450
0.017350 0.176078 -0.316159
0.008856 -0.195396 0.451648
-0.001290 0.007192 -0.476657
0.028877 0.174510 -0.332375
-0.013150 -0.012873 0.065746
-0.075390 0.159020 -0.034249
-0.030152 -0.018595 -0.382467
-0.012231 -0.077063 0.473493
-0.024775 -0.010226 -0.236601
-0.036092 0.084381 -0.460966
0.047562 0.135245 -0.133299
-0.019380 0.152549 -0.442671
0.008468 0.008127 0.293815
-0.021424 -0.013070 -0.363179
0.041510 0.166573 -0.155862
0.040662 0.095214 -0.313068
-0.029539 -0.001447 -0.364032
0.062111 0.136205 -0.068463
0.009923 -0.086846 0.485720
-0.036794 0.183901 -0.120748
0.021992 0.004577 0.048388
0.024754 0.003022 -0.260786
-0.030892 0.087611 -0.171087
0.009303 0.180166 -0.202503
-0.004971 0.100074 -0.029550
0.035581 0.151949 -0.424355
-0.033184 -0.003873 -0.440650
-0.050362 0.122535 -0.242367
0.034384 0.219579 -0.060767
-0.041891 0.115194 -0.073268
-0.013553 -0.112049 0.477233
0.024410 0.113188 0.018061
-0.029036 0.082848 -0.454902
0.001697 0.082919 -0.225130
-0.066954 0.217504 -0.056552
0.004985 0.089586 -0.193250
0.000300 -0.049133 0.500602
0.030603 0.089005 -0.275359
-0.009592 0.167482 -0.346477
-0.023262 -0.022092 -0.195108
0.019786 0.001313 -0.109248
0.035447 0.091841 -0.085556
-0.011557 0.076564 -0.401818
0.031529 0.008632 -0.300622
0.054668 0.222263 -0.052917
-0.056150 0.166496 -0.106694
0.009536 0.023421 -0.387294
0.017717 -0.008748 -0.014640
-0.047290 0.168692 -0.049916
0.003428 -0.020852 0.156900
0.005018 -0.025583 -0.211167
0.051060 0.138351 -0.023728
-0.064315 0.173221 -0.039608
0.047246 0.150903 -0.111231
-0.024829 0.075376 -0.432869
-0.007017 0.014435 0.147332
-0.013508 -0.250321 0.439460
0.030044 0.160731 -0.259417
-0.041183 0.105881 -0.278426
0.009740 0.010500 0.131425
-0.061103 0.146793 -0.037682
-0.017685 0.007616 0.222344
0.048612 0.097449 -0.448472
-0.014558 -0.020296 -0.035896
0.032466 0.045977 -0.483355
-0.005465 0.014507 0.048484
-0.020243 -0.020122 -0.134788
-0.000379 -0.021715 -0.266372
0.001106 -0.012594 0.165679
-0.015731 -0.014447 0.147912
0.030613 0.219930 -0.042922
0.010271 0.167280 -0.007821
-0.038470 0.160880 -0.250540
0.059964 0.222139 -0.051688
0.010609 -0.031502 0.080426
0.041287 0.099800 -0.257268
0.025982 0.077209 -0.409280
-0.003560 -0.027854 0.104035
0.071530 0.178858 -0.014449
0.012655 -0.019634 0.260647
-0.003546 0.199625 -0.124601
0.025297 0.186087 -0.156845
0.015074 0.004161 0.251797
0.008799 0.200563 -0.119950
-0.000052 0.151522 -0.005429
0.034542 0.001265 -0.438716
-0.077531 0.166512 -0.011175
-0.052270 0.178727 -0.086575
0.054193 0.130858 -0.258500
0.008082 -0.016332 -0.099512
-0.019506 0.018276 -0.402778
-0.030237 -0.015125 -0.368247
-0.001122 -0.227467 0.434080
0.012029 -0.029855 -0.282453
0.006410 0.008137 0.386133
0.031142 0.164236 -0.332419
0.050830 0.119601 -0.435548
-0.054247 0.126046 -0.180064
0.011220 0.021371 -0.249074
-0.056199 0.126476 -0.107393
0.001500 -0.080056 0.466499
0.078993 0.154558 -0.010672
0.031333 0.108876 -0.467103
0.041002 0.169216 -0.154937
0.029397 0.030820 -0.454111
-0.055638 0.126032 -0.168105
0.030001 0.078400 -0.467399
0.050621 0.123026 -0.309608
0.037401 0.117540 -0.462663
-0.001133 0.178725 -0.276780
-0.023451 0.172639 -0.291227
0.000793 0.084628 -0.188202
0.004821 0.087081 -0.192120
0.019089 0.108990 -0.042546
-0.021430 -0.019380 0.071877
-0.011943 0.099159 -0.070474
-0.007789 0.028228 -0.318591
0.035076 0.113301 -0.113279
0.027010 -0.017767 -0.262605
0.045924 0.108552 -0.210689
0.011324 -0.016008 0.249763
0.017956 -0.001807 0.062608
-0.004401 0.077561 -0.231072
0.006638 -0.015061 0.150479
0.040161 0.199851 -0.068040
-0.016451 0.106747 -0.005432
-0.043921 0.113944 -0.416289
-0.040335 0.114782 -0.060708
0.026189 0.089507 -0.328454
-0.029485 -0.002272 0.195996
-0.017371 0.002644 0.137695
0.009327 -0.004431 -0.015656
-0.045579 0.022081 -0.435745
0.024625 0.091904 -0.258787
-0.040254 0.098277 -0.465788
-0.013090 -0.052902 0.477232
0.009413 0.026437 -0.237060
-0.014873 0.107876 -0.487264
-0.030081 0.031316 -0.314066
0.017268 0.082588 -0.378843
0.005027 0.083293 -0.232134
0.002314 0.013271 0.335020
-0.034260 0.097522 -0.146423
-0.026505 -0.022363 -0.310632
-0.001135 -0.203465 0.428547
0.012141 0.007320 0.236651
-0.057199 0.169250 -0.015435
-0.012890 0.018545 -0.117511
0.024462 0.005196 -0.123803
-0.066814 0.165549 -0.031833
0.039205 0.120551 -0.050807
0.049548 0.140504 -0.192648
0.032760 0.186611 -0.104899
-0.013404 0.157935 -0.001085
0.001072 0.127203 -0.480802
0.022282 0.150707 -0.436435
-0.001171 0.074316 -0.323580
-0.048931 0.150976 -0.192118
0.008820 -0.064165 0.494921
0.065569 0.213545 -0.037508
-0.012592 -0.000863 0.352490
-0.047163 0.196758 -0.063696
-0.003509 0.009528 0.291867
-0.025558 0.243280 -0.065448
-0.001146 -0.155365 0.435821
-0.075962 0.171048 -0.027501
0.069864 0.197594 -0.026581
0.006609 -0.019920 0.343668
-0.056580 0.239928 -0.052832
0.034234 0.108493 0.001490
-0.013872 0.162786 -0.392877
-0.014237 0.001227 0.181681
-0.037417 -0.005179 -0.301754
0.035887 0.096395 -0.210638
0.058684 0.188498 -0.027157
-0.048922 0.123349 -0.303914
0.046878 0.108253 -0.292985
-0.029105 0.009167 -0.149240
0.021036 0.002227 -0.031807
-0.024941 0.015721 -0.246896
-0.004323 0.030795 -0.373253
0.026448 0.055254 -0.435363
-0.002791 -0.022789 0.365926
0.050609 0.129092 -0.128090
-0.013209 0.045919 -0.407382
0.017641 0.166756 -0.311463
0.051606 0.112429 -0.210876
-0.022493 0.015389 0.286301
0.009389 -0.022035 -0.455958
0.031522 0.181188 -0.028607
0.032211 0.097442 -0.097138
0.031195 0.031025 -0.413985
0.018966 0.073471 -0.493249
-0.041289 0.108331 -0.410201
0.050920 0.171990 -0.111155
0.025802 -0.005919 0.172295
-0.051037 0.152461 -0.144208
0.006192 0.218387 -0.036777
-0.012058 -0.010795 0.376571
-0.013077 -0.017445 -0.006619
-0.007724 0.009942 0.382856
-0.017446 -0.027932 -0.319227
-0.001172 0.017774 -0.293245
-0.019438 0.038842 -0.414048
-0.044296 0.155615 -0.347370
-0.033465 0.082526 -0.457088
-0.014566 0.242243 -0.062054
0.011368 0.012871 0.129844
0.014551 0.017998 -0.326893
-0.024817 0.137981 -0.460107
0.068391 0.202767 -0.031767
-0.028119 0.007451 -0.246101
0.010257 -0.014720 -0.073241
-0.003451 -0.030458 0.299252
0.027754 -0.001539 -0.352103
-0.016499 -0.033440 -0.350869
-0.004378 -0.014908 0.280700
-0.049195 0.109347 -0.299620
-0.030688 0.019165 -0.423288
-0.021150 0.012675 -0.278969
-0.013308 0.009378 -0.072458
0.022220 0.203601 -0.072294
0.016252 -0.006397 0.231049
0.035132 0.103243 -0.405834
-0.041875 0.110726 -0.089962
-0.023225 -0.022865 -0.328908
-0.002653 0.186628 -0.193221
0.030631 0.097752 -0.237666
0.020536 -0.004387 0.263824
-0.045706 0.113837 0.005157
0.012422 0.005901 -0.021482
-0.014312 -0.014211 0.158086
0.038149 0.174647 -0.381716
-0.017018 0.079204 -0.376792
-0.045092 0.111426 -0.335498
-0.016631 0.039407 -0.484071
-0.074610 0.175882 -0.032776
0.051212 0.176549 -0.095536
-0.024412 0.010752 -0.115601
-0.018459 -0.012093 -0.086990
0.025193 0.180124 -0.333173
-0.001749 -0.029091 -0.388512
0.014811 -0.032300 -0.299205
0.025850 -0.021949 -0.393810
-0.000746 0.098124 -0.493202
-0.033555 0.089942 -0.248430
-0.042288 0.235355 -0.057180
-0.020391 -0.010872 -0.009788
0.028428 0.109031 -0.060705
-0.040529 0.109963 -0.112413
0.023161 0.009492 -0.051365
-0.032897 -0.007927 -0.235401
0.030049 0.085460 -0.416633
-0.066733 0.155202 0.008800
-0.016219 -0.106618 0.483442
0.032996 0.106187 -0.024421
-0.008907 0.012604 -0.334670
0.009869 0.014231 0.135255
0.016339 0.158390 -0.424296
-0.044447 0.125731 -0.394392
0.057196 0.143616 -0.053459
-0.018362 -0.017575 -0.004544
-0.019076 0.067000 -0.493396
0.045807 0.212736 -0.053660
-0.003241 0.098671 -0.050462
0.028481 0.093248 -0.307109
-0.007865 -0.130928 0.471206
-0.013425 -0.005891 0.369369
-0.004084 0.018315 -0.062577
0.048174 0.122688 -0.038649
0.018193 0.079350 -0.491211
-0.053637 0.150122 -0.058940
0.062233 0.146454 0.001046
0.006753 0.169377 -0.350431
-0.041033 0.191760 -0.116140
-0.025895 -0.017372 -0.281869
0.051095 0.180500 -0.064944
0.010625 0.008659 0.189525
0.037326 0.014505 -0.270150
0.018760 0.006835 0.253751
-0.007504 -0.243409 0.451252
-0.014875 -0.027647 -0.329640
0.025373 0.174050 -0.192932
-0.013515 0.095067 -0.095728
-0.035291 0.091174 -0.349889
-0.025534 -0.011555 -0.297414
0.019358 -0.025548 0.463413
0.053191 0.126630 -0.169157
0.055328 0.131267 -0.050524
0.039439 0.097917 0.029959
-0.016372 0.009767 -0.022878
0.032242 0.018459 -0.323426
0.023726 -0.007109 -0.094134
-0.007810 0.090110 -0.116217
0.023335 -0.004535 -0.312151
-0.005584 0.079943 -0.301998
-0.007242 0.099824 -0.040607
-0.024914 -0.002099 -0.076076
-0.043776 0.242991 -0.055730
0.013949 0.187230 -0.183612
-0.000976 -0.007746 0.445707
-0.022487 0.224120 -0.036026
0.005743 0.103565 -0.017415
0.014683 0.003360 0.195190
-0.051588 0.121059 -0.427165
-0.006236 -0.230647 0.435780
0.036897 0.104090 -0.393930
-0.028783 0.029472 -0.460186
-0.052717 0.147164 -0.395702
-0.050567 0.144913 -0.137696
-0.029048 0.046830 -0.471019
-0.000493 -0.075128 0.466242
-0.021140 -0.003303 0.426041
0.013723 0.077677 -0.344257
0.081373 0.182848 -0.011250
-0.048606 0.121850 -0.194185
-0.010637 -0.085727 0.462487
-0.002216 -0.107861 0.474067
-0.013418 -0.022191 -0.034070
0.039848 0.118771 0.006825
0.030926 0.202297 -0.031277
0.009297 -0.013905 0.108496
-0.007872 0.139576 -0.456326
0.036187 0.158932 -0.415448
0.051215 0.119705 -0.213887
0.024973 -0.001135 -0.049970
0.019792 0.001367 -0.000169
-0.014100 -0.006137 -0.226221
-0.001646 0.094068 -0.093561
-0.001409 0.088514 -0.194221
-0.012375 0.009380 0.230793
-0.014344 0.008209 -0.268818
-0.033766 0.242642 -0.053094
-0.023745 0.175905 -0.238580
-0.016048 -0.004670 0.389620
0.020174 0.101968 -0.062843
-0.004474 -0.032238 -0.150305
0.013241 -0.013130 -0.156760
-0.001425 0.017833 0.323428
-0.038844 0.094826 -0.340429
0.004828 -0.033987 0.467404
0.012857 0.007985 0.152788
-0.003509 0.005323 0.218785
-0.012966 -0.050223 0.484421
-0.023061 0.017055 -0.040809
-0.011928 -0.014690 0.253808
-0.044416 0.177840 -0.117913
0.057677 0.139312 -0.032210
0.010304 -0.008749 0.271760
-0.038862 0.121045 -0.379435
-0.032944 0.090391 -0.341945
0.041865 0.111740 -0.210293
0.025931 0.185038 -0.177040
-0.007366 0.110029 0.022282
0.011294 -0.038406 -0.118635
-0.047937 0.127164 -0.403731
0.010250 0.080905 -0.218656
0.021694 0.010815 0.095119
-0.007956 0.178072 -0.212914
-0.016639 0.026129 -0.061477
0.037649 0.093419 -0.280204
0.030205 0.000428 -0.343767
0.018796 0.082314 -0.280957
-0.035831 0.147467 -0.003222
0.018078 -0.007365 0.476427
0.067336 0.172993 -0.043237
-0.019805 0.006310 -0.276085
-0.016048 0.017821 -0.151416
-0.005952 0.022536 -0.202674
0.005145 0.173638 -0.330866
0.047539 0.104956 -0.288131
0.001084 -0.018093 0.311595
0.000640 -0.023077 0.259998
0.047000 0.149986 -0.365132
-0.030787 -0.004157 -0.339016
0.053092 0.206069 -0.031355
0.019365 0.008883 -0.053616
-0.051335 0.151515 -0.169228
-0.003334 0.023940 -0.306320
-0.010245 0.002949 0.376202
-0.011228 -0.019735 0.064709
-0.041756 0.111151 -0.205632
0.009326 0.114130 -0.479825
-0.009299 -0.243956 0.438104
0.010245 -0.024447 -0.393569
0.019031 0.011727 0.143055
0.031831 0.117897 -0.476466
-0.028207 -0.007648 -0.231039
-0.020920 -0.075918 0.478057
-0.021356 -0.024902 -0.204118
-0.026551 0.001106 -0.232007
-0.049425 0.118018 -0.018400
-0.034027 0.012625 -0.396218
-0.020551 -0.026392 -0.321558
-0.036534 0.190669 -0.088103
-0.041029 0.153266 -0.267896
-0.058137 0.136012 -0.013747
-0.074163 0.194809 -0.020555
-0.038646 0.145343 -0.273187
-0.070377 0.194661 -0.029300
0.026705 -0.015552 -0.128738
-0.039511 0.174167 -0.134426
0.009054 -0.028081 -0.199984
-0.010080 -0.013655 0.157301
0.012188 0.057841 -0.421734
0.012433 0.068153 -0.363222
0.049079 0.127970 -0.170025
-0.023784 0.004642 -0.073079
0.003786 0.177257 -0.226990
0.026195 0.007877 -0.128365
-0.004372 0.021623 0.157430
-0.008510 -0.023553 -0.422873
-0.038793 0.073555 -0.449812
-0.009009 -0.016964 0.483822
-0.016178 -0.006651 0.010089
0.025764 -0.000526 -0.211000
0.010227 0.217481 -0.043202
-0.007398 0.038624 -0.405232
0.004490 -0.030858 -0.106612
-0.084129 0.152579 -0.006475
0.074332 0.162992 -0.001654
0.037221 0.133265 -0.418370
0.012175 -0.013418 0.389547
-0.016182 -0.017664 0.232890
0.041518 0.014429 -0.412615
-0.010450 -0.003568 0.126146
0.074740 0.158312 -0.020919
-0.022724 0.168623 -0.387627
-0.034897 -0.006018 -0.386791
-0.029867 0.135619 -0.454422
-0.015894 0.117869 -0.476906
-0.030250 0.187879 -0.019915
-0.000885 -0.123294 0.435375
0.002239 -0.014161 0.115544
-0.002572 0.170864 -0.400244
0.071866 0.221162 -0.044419
-0.083736 0.181539 -0.015516
-0.015251 0.007263 0.336300
0.016673 0.016082 -0.171353
0.004006 0.080460 -0.389159
-0.022944 0.149965 0.003293
-0.014728 -0.001222 0.253600
-0.012524 0.079990 -0.176541
0.032232 0.099503 -0.205479
-0.016893 -0.035829 -0.313094
-0.019783 0.086048 -0.334686
-0.002543 -0.096878 0.467989
-0.083729 0.178986 -0.022694
-0.041174 0.097809 -0.143332
0.049690 0.163631 -0.118787
0.031108 0.203777 -0.064502
-0.033506 0.121915 -0.448308
0.055607 0.190025 -0.088466
0.037061 0.180859 -0.148257
0.030879 0.108944 -0.031266
-0.009964 0.020360 -0.154535
0.004209 -0.018529 0.490810
0.021268 0.024802 -0.395588
-0.007099 0.084268 -0.173850
0.022924 0.002543 -0.229159
0.037829 0.099000 -0.309490
-0.036759 0.196331 -0.027054
-0.039882 0.106502 -0.252690
0.014629 -0.194094 0.436964
0.006398 -0.161528 0.437517
0.012167 0.095804 -0.051350
0.011160 -0.119152 0.458731
-0.025773 -0.003464 -0.381980
-0.024713 -0.006585 0.215828
0.042785 0.213732 -0.032092
-0.013014 -0.029781 -0.422626
0.003187 0.079221 -0.157552
0.002083 -0.013512 0.328192
-0.041261 0.120810 -0.186892
-0.029984 -0.004346 -0.030986
0.055380 0.145056 -0.264290
-0.028727 0.069664 -0.477111
-0.003914 -0.017639 0.292843
-0.039638 0.120246 -0.459956
-0.036131 0.175808 -0.237886
0.045321 0.115223 -0.222541
-0.001410 0.026530 -0.211326
-0.004330 -0.025078 -0.073157
0.007730 0.043283 -0.406050
0.063331 0.152342 -0.100926
-0.015571 0.172084 -0.394763
0.025773 0.171620 -0.301910
-0.034123 -0.015060 -0.373481
-0.036409 0.194252 -0.078027
0.034636 0.106428 -0.157017
-0.031883 0.053312 -0.444475
-0.045134 0.103077 -0.237193
0.049452 0.096412 -0.132241
-0.022928 0.157810 -0.414726
-0.021881 0.168720 -0.310963
-0.007907 -0.002569 0.422106
0.051400 0.204023 -0.025008
-0.076897 0.170138 -0.014733
0.012952 0.074872 -0.396506
-0.032573 0.169446 -0.194991
-0.002801 0.241501 -0.048643
-0.040918 0.180758 -0.022975
-0.020646 0.002123 0.431348
0.057943 0.128690 0.005556
0.020785 0.086412 -0.275287
-0.043434 0.111741 -0.056372
0.028175 -0.022094 -0.319248
0.004045 0.021468 0.236862
-0.048579 0.170279 -0.115737
0.005118 0.022340 -0.006946
-0.029849 0.178259 -0.240163
-0.019978 0.097268 -0.111515
-0.016777 -0.027080 -0.427350
0.002943 0.169024 -0.414234
-0.008771 -0.026732 -0.216598
0.013825 0.102505 0.015270
-0.045197 0.131812 -0.292666
0.010293 0.072361 -0.401456
-0.015561 -0.016940 0.220627
0.046538 0.130342 -0.208843
-0.023928 -0.021536 -0.439569
0.056300 0.135456 -0.114726
-0.077816 0.168847 -0.017951
-0.035448 0.151264 -0.421244
0.042765 0.174206 -0.124899
-0.006357 -0.039423 0.491542
0.047401 0.187718 -0.014027
-0.012888 0.009322 0.159745
0.002746 0.019288 0.368180
0.057386 0.175269 -0.086879
-0.019491 -0.020167 -0.444629
-0.025468 -0.009585 -0.116117
0.008090 0.029821 -0.389730
-0.000647 -0.181398 0.434827
-0.008400 -0.082380 0.503174
-0.038708 0.247029 -0.050516
0.026391 -0.015127 -0.360976
0.026872 0.012845 -0.140107
0.022557 -0.006326 0.203133
0.052961 0.131666 -0.187947
0.018913 0.006118 -0.013261
0.001799 -0.017985 -0.040242
-0.002443 -0.017126 0.260356
0.044607 0.110042 -0.461386
0.016097 0.161927 -0.442220
0.026087 0.173157 -0.018277
-0.045365 0.149922 -0.243952
-0.060359 0.174852 -0.080594
-0.013723 -0.029707 -0.393063
0.004027 -0.062555 0.506830
0.010718 0.008839 0.005059
0.036859 0.104541 -0.075997
0.004174 0.013802 -0.019911
-0.013238 0.146268 -0.445393
-0.005934 -0.008290 0.347444
-0.004043 -0.047572 -0.277642
0.013774 0.004894 0.427586
-0.014189 0.004232 0.095213
-0.068029 0.184878 -0.018689
0.012640 0.143526 -0.451213
-0.012306 -0.062620 0.481853
-0.019978 0.206618 -0.026976
0.011012 0.167255 -0.016325
-0.008642 -0.016007 -0.450201
0.015222 -0.020244 0.155889
-0.010765 0.187021 -0.157556
-0.053496 0.130865 -0.172557
0.014016 -0.023556 0.086442
0.036944 0.186980 -0.107016
-0.000776 0.246969 -0.058087
0.021566 0.100268 -0.010454
0.013251 -0.044462 0.490288
-0.015657 -0.003030 -0.203302
0.055898 0.152966 -0.105479
-0.049682 0.143325 -0.199943
0.045775 0.102256 -0.265230
0.035384 0.109958 0.001349
0.007080 0.098589 -0.030888
0.057831 0.146908 -0.042547
-0.005945 0.023863 0.295531
0.006293 0.102174 0.001909
0.014512 0.192355 -0.169576
-0.053994 0.150414 0.000952
0.034469 0.113030 -0.020663
-0.037477 0.098791 -0.149049
0.010495 0.099127 -0.028236
-0.013858 -0.025355 -0.002887
-0.013473 0.077947 -0.375186
-0.004735 -0.203407 0.451670
-0.044328 0.132117 -0.346771
0.051769 0.133156 -0.287664
-0.030780 0.208310 -0.076323
0.005431 0.166472 -0.367003
-0.039109 0.212599 -0.083377
0.060219 0.128468 -0.189154
-0.012566 0.095835 -0.196826
-0.008727 -0.027339 -0.449438
0.035526 0.095479 -0.285940
0.015250 0.024311 -0.299646
0.004534 0.026676 -0.197440
-0.045688 0.155965 -0.332373
-0.017530 -0.123939 0.459822
0.010177 0.242286 -0.053987
-0.050316 0.248100 -0.061648
-0.027663 0.081165 -0.228174
-0.018558 0.159883 -0.410188
-0.007262 0.161843 -0.404292
-0.014553 0.088036 -0.232565
-0.035375 0.107890 -0.059901
-0.032206 -0.002372 -0.453642
0.016925 0.199911 -0.027916
0.060622 0.131455 -0.017319
-0.044389 0.053471 -0.471873
0.039491 0.092958 -0.403795
-0.025238 0.003457 -0.358146
0.020074 -0.023265 -0.060367
-0.038492 0.059807 -0.443874
0.008053 -0.118219 0.477308
0.012712 -0.013162 0.265152
-0.022987 -0.005418 -0.409549
0.012510 -0.027951 0.457982
-0.017736 0.079713 -0.132920
-0.034350 -0.009796 -0.400461
0.006421 0.203050 -0.136043
0.018557 0.009219 0.070806
0.061815 0.130116 -0.021560
0.049451 0.162689 -0.111747
-0.031648 0.158314 -0.343787
0.019831 0.111406 0.006188
0.023083 0.068492 -0.376590
0.041299 0.162401 -0.305084
-0.021259 -0.025249 -0.236889
-0.019533 -0.011202 0.323169
0.016018 0.081508 -0.368550
-0.031856 0.173440 -0.161473
-0.029383 0.091380 -0.464898
0.007773 0.215648 -0.066085
0.006521 0.173391 -0.021624
-0.005624 0.177532 -0.292914
-0.042666 0.159362 -0.292350
0.056231 0.142887 -0.071041
0.031397 0.079453 -0.412142
-0.010231 -0.236527 0.439703
-0.034350 0.096983 -0.132329
0.005064 0.113391 -0.025786
0.006608 -0.025172 -0.051346
-0.008213 0.014325 -0.091709
0.062434 0.142186 -0.175654
0.048005 0.115823 -0.452208
-0.036398 0.027351 -0.429532
0.000738 -0.018350 0.047066
0.009835 -0.006867 0.431394
0.005640 0.093259 -0.097335
-0.022098 -0.000623 -0.172456
0.056671 0.154809 -0.073724
0.020222 0.005447 0.349000
0.029144 0.049676 -0.434950
-0.027539 0.086450 -0.478988
-0.047697 0.138720 -0.186832
0.008040 -0.026504 -0.101433
-0.031974 -0.013766 -0.297867
-0.040564 0.150448 -0.273881
0.046591 0.164074 -0.140094
0.000729 0.017999 0.009014
-0.053393 0.149718 -0.145411
0.000630 0.085369 -0.192338
-0.020065 0.092830 -0.354101
-0.032584 0.209445 -0.029252
-0.023920 -0.012330 -0.045841
0.000437 0.092184 -0.065403
0.035469 0.117736 -0.422539
0.025556 -0.005342 -0.387894
0.017101 -0.129693 0.446931
0.035530 0.174463 -0.342094
-0.043654 0.115388 0.023892
-0.001919 -0.028121 0.514806
-0.020411 -0.010993 -0.464051
-0.005534 0.186756 -0.152303
-0.000396 -0.020260 0.370148
-0.068509 0.160595 -0.007410
0.011597 -0.019568 0.211987
0.053973 0.112644 0.004756
-0.065091 0.182696 -0.047303
-0.004289 0.103634 -0.031437
-0.030601 0.136983 -0.437087
-0.034895 0.110069 -0.002084
0.022035 -0.017169 -0.406790
-0.040528 0.160149 -0.217135
-0.028805 0.099002 -0.114825
-0.011393 0.098894 -0.032543
-0.017257 0.025496 -0.157048
-0.037147 0.106345 -0.155467
-0.010955 0.089057 -0.088616
0.014659 -0.015142 0.059744
-0.008687 -0.007458 0.470707
0.031734 0.092988 -0.263986
-0.023862 -0.017427 -0.384631
0.024381 -0.010375 -0.358924
0.019949 0.109387 -0.025054
0.040187 0.115292 -0.192256
0.027986 -0.008851 -0.010677
-0.044970 0.114305 -0.223511
-0.004165 0.009939 0.429871
-0.030618 0.214656 -0.062120
0.043035 0.156743 -0.311266
-0.018213 -0.013668 0.021211
-0.011419 0.016312 -0.138606
0.002228 0.010404 -0.074615
0.037123 0.103573 -0.198184
0.020078 0.113702 -0.016640
0.011672 0.021075 -0.382790
-0.043151 0.168203 -0.179811
0.020408 -0.018634 0.199441
0.006824 -0.021071 0.008045
-0.002177 0.029734 -0.305745
0.000444 -0.063374 0.500820
0.037089 0.102146 -0.399298
-0.041018 0.100699 -0.179396
0.031760 0.048139 -0.440302
0.030322 0.027279 -0.417516
-0.026763 -0.017663 -0.043700
-0.031534 -0.007004 -0.423561
0.010309 -0.222212 0.433326
-0.016874 0.010087 -0.480556
0.043370 0.090930 -0.420976
-0.020015 0.010081 -0.003695
0.009977 -0.032245 -0.269237
0.031753 0.093858 -0.158247
-0.060587 0.154581 -0.025947
0.020580 0.080655 -0.249633
-0.063865 0.173315 -0.090152
-0.037733 0.107300 -0.055782
-0.010837 -0.008666 0.330405
-0.010017 0.176952 -0.359813
0.007096 0.081887 -0.297498
-0.003392 0.183607 -0.016533
0.027922 0.004707 0.062200
-0.014048 -0.025619 -0.239229
0.014315 -0.022708 0.181502
-0.021129 0.170816 -0.296212
-0.025660 -0.007233 0.038703
0.010659 0.096322 -0.070954
-0.004425 -0.023981 -0.061461
0.018554 0.206974 -0.100762
0.024467 0.004187 0.103765
-0.015437 -0.020887 -0.006383
-0.021532 0.019212 -0.196496
-0.028694 0.026560 -0.402363
0.021100 -0.000855 -0.432849
-0.004484 -0.143050 0.454956
0.021862 0.054293 -0.422189
0.057536 0.137941 -0.202729
0.012462 0.175224 -0.235585
-0.003668 0.046755 -0.506865
0.010246 -0.032306 -0.138103
-0.007761 0.082055 -0.332725
0.012903 0.018963 0.250957
-0.000773 -0.102810 0.461594
0.015300 -0.018999 0.180775
-0.084313 0.192961 -0.031822
0.031140 -0.012330 -0.313068
-0.051417 0.112270 -0.115049
-0.017816 0.200867 -0.138874
-0.015394 0.067720 -0.420292
0.053558 0.140377 -0.328080
0.002611 0.196151 -0.143510
-0.035381 0.179866 -0.161164
-0.048393 0.151404 -0.166559
0.010200 0.085413 -0.238526
-0.002694 0.011468 0.254146
0.057725 0.117486 -0.367111
-0.041253 0.093207 -0.144597
0.000419 0.061858 -0.497322
-0.046843 0.088863 -0.308457
-0.005256 0.105971 0.014607
0.011284 0.087874 -0.055681
-0.014957 0.188726 -0.280818
-0.075654 0.194058 -0.031352
0.013914 -0.025505 -0.083908
-0.045857 0.116751 -0.419292
0.055173 0.134349 -0.110928
0.027478 0.015592 -0.387331
-0.015751 -0.007463 0.402629
0.007092 -0.010512 0.378128
0.048987 0.123559 -0.283961
0.014271 -0.000275 0.443636
0.046615 0.143008 -0.383889
0.000249 0.006775 0.257483
0.026278 0.099759 -0.122226
-0.044298 0.231659 -0.053043
-0.039718 0.160356 -0.187970
0.011709 0.075883 -0.226718
0.035362 0.217449 -0.060780
0.007965 -0.029302 0.245696
0.012888 0.241777 -0.066488
-0.021728 0.036964 -0.469140
-0.049199 0.166217 -0.066016
-0.004111 0.022304 0.024283
-0.025284 0.027403 -0.381085
0.035096 0.108803 -0.229493
-0.031357 0.157891 -0.401076
-0.020407 0.023743 -0.412699
0.014850 -0.006928 0.315250
-0.018620 0.035492 -0.492261
-0.021917 0.176002 -0.006082
-0.019417 0.036425 -0.403866
0.041085 0.153378 -0.367011
-0.006184 0.013362 0.045142
-0.036118 0.091707 -0.138871
0.060297 0.213083 -0.044188
-0.036871 0.163654 -0.233516
-0.015195 -0.010703 -0.032115
-0.011233 0.061399 -0.421076
0.007840 0.079806 -0.247661
0.025050 -0.018963 -0.355838
-0.004347 -0.031863 -0.413801
-0.014485 -0.132496 0.462178
0.008589 0.196401 -0.149889
0.033445 0.097536 -0.436964
0.026735 0.188021 -0.166861
-0.002802 -0.021568 0.455943
0.004976 0.020735 -0.169039
-0.022597 0.081612 -0.374347
0.013016 -0.020839 0.063383
0.046125 0.158944 -0.373983
-0.013072 0.175055 -0.248026
-0.039062 0.118782 -0.432444
0.039548 0.097864 -0.440308
0.037829 0.095836 -0.262059
-0.011122 -0.021764 0.089661
0.025490 0.089506 -0.357189
0.063793 0.208969 -0.035960
0.056223 0.146142 -0.046371
0.043707 0.129572 -0.303778
0.007199 0.011575 0.261049
0.027858 -0.009038 -0.357023
-0.046934 0.132694 -0.018791
-0.017709 -0.015294 0.228282
0.022179 0.002721 -0.180600
0.007662 -0.000304 0.332273
0.011205 0.003969 -0.175300
-0.005521 -0.002819 0.256565
-0.035345 0.116364 -0.031780
-0.038257 0.100514 -0.427858
0.001134 0.019631 0.138866
0.049911 0.137070 -0.394701
0.000871 -0.170683 0.423666
-0.010186 0.008403 0.411336
-0.079077 0.180744 -0.019511
0.072894 0.133629 -0.005738
-0.029440 -0.012232 -0.365966
-0.019370 0.008851 -0.477684
-0.024685 0.002306 -0.161596
0.053323 0.147640 -0.240919
-0.024870 0.173663 -0.325945
-0.006715 -0.003405 0.246342
0.063182 0.171647 -0.063771
0.002222 0.089312 -0.083545
0.027373 0.075557 -0.409335
-0.078734 0.176908 -0.025743
0.007523 -0.014115 0.109230
0.000313 0.090151 -0.499930
-0.046455 0.146992 -0.296631
-0.002859 -0.027051 -0.243279
0.021597 -0.014384 -0.152462
0.009284 0.193690 -0.024489
-0.016031 0.094987 -0.120020
-0.077313 0.201253 -0.013385
-0.051771 0.175388 -0.065345
-0.026941 0.084174 -0.230932
-0.001147 0.013299 -0.257158
0.027256 0.013667 -0.396241
-0.014278 -0.024706 -0.243591
0.048517 0.216090 -0.042272
-0.005321 0.210197 -0.088208
-0.017468 0.020525 -0.280615
0.015894 -0.007306 0.012963
0.029310 0.203884 -0.082988
-0.008139 -0.024238 -0.164931
-0.008062 0.105314 -0.018061
-0.004875 0.008211 0.185366
0.028847 0.100766 -0.203501
0.011711 -0.001018 0.459176
0.052435 0.123652 -0.011596
0.027972 0.005569 -0.235784
0.050464 0.141937 -0.143015
-0.000976 0.080562 -0.501460
-0.049294 0.158910 -0.197718
-0.023046 0.203005 -0.036217
0.048357 0.110926 -0.104372
0.049664 0.132590 -0.210871
-0.037267 0.189970 -0.075273
-0.012637 -0.020021 -0.011179
-0.025520 0.095687 -0.070429
0.012308 -0.157981 0.442333
-0.020166 0.006551 -0.084912
0.037040 0.090626 -0.228599
-0.012281 -0.015864 -0.396597
0.015199 -0.029121 -0.085999
-0.052966 0.173710 -0.070152
-0.042678 0.117362 -0.021184
-0.010831 0.006632 0.171528
0.034219 0.000679 -0.262362
-0.045531 0.137627 -0.285631
-0.054175 0.118825 -0.167289
0.037097 0.058156 -0.472438
-0.012704 0.005634 -0.452942
0.002433 -0.135991 0.445732
0.048641 0.145933 -0.335760
-0.019144 -0.003535 0.140559
0.000598 -0.025531 -0.391853
-0.050594 0.123847 -0.085338
-0.038020 0.095660 -0.108954
-0.039762 0.147472 -0.414764
-0.041957 0.125646 -0.020615
-0.018402 -0.003477 0.190740
-0.031023 0.089895 -0.137307
-0.005320 -0.026710 -0.079746
0.028189 0.074808 -0.409295
0.013644 0.021776 -0.346324
0.038715 0.156174 -0.402600
-0.029039 -0.001619 -0.336852
-0.004993 0.222393 -0.065321
-0.007577 0.106662 0.025558
-0.046381 0.147511 -0.291912
-0.015324 0.011600 -0.283232
0.060869 0.240484 -0.055601
0.030615 0.087256 -0.306386
-0.025961 -0.010421 0.182294
-0.008314 0.035568 -0.404743
-0.016288 -0.014802 0.064266
0.003935 0.162411 -0.017658
-0.036460 0.198778 -0.081880
-0.034286 0.139484 -0.430129
0.019403 0.009546 -0.097200
0.042161 0.110059 -0.110780
0.006801 -0.022825 -0.039096
-0.040508 0.095115 -0.101310
-0.014578 -0.028094 -0.314299
-0.017184 0.008234 0.046554
-0.018844 -0.116882 0.466956
0.032370 0.156746 -0.401057
-0.013893 0.011574 -0.119314
0.014030 0.079670 -0.129404
-0.023375 0.013539 -0.226735
-0.039819 0.027845 -0.449137
0.037291 0.167415 -0.308196
-0.023806 0.000806 -0.186976
-0.022308 0.161619 -0.013307
0.030418 0.162470 -0.292630
-0.035257 0.179060 -0.160141
-0.002650 -0.264034 0.444419
-0.002462 -0.009541 -0.465341
-0.015503 0.079114 -0.252683
-0.034728 -0.008109 -0.358395
0.050750 0.123781 -0.117247
-0.082898 0.166719 -0.012939
-0.016107 -0.007654 0.156436
0.040903 0.122626 -0.458882
0.023286 0.000937 0.245695
0.027004 0.024340 -0.419906
-0.018427 -0.008981 -0.021587
0.028072 0.097971 -0.087459
-0.029747 0.024233 -0.442878
-0.005907 0.018567 -0.175719
0.083144 0.151094 -0.000491
-0.002227 0.010979 -0.486373
0.032233 0.147189 -0.444188
0.032280 -0.008353 -0.411159
-0.036277 0.054743 -0.471232
0.012631 0.011686 -0.046375
0.043813 0.145894 -0.324881
0.028516 0.111666 -0.040092
0.052495 0.137106 -0.065050
-0.034748 0.105347 -0.159659
0.027698 0.008986 -0.149924
-0.033926 0.154471 -0.323637
-0.000691 0.021547 -0.110987
-0.025324 0.227188 -0.063170
-0.026474 0.004249 -0.443176
-0.043388 0.175230 -0.133064
0.073738 0.158550 -0.008126
0.001439 0.077792 -0.274168
-0.008589 -0.012420 0.227249
0.066376 0.194064 -0.020181
0.027266 0.009885 -0.193198
0.013569 0.080150 -0.494067
0.008726 0.014251 -0.083346
-0.010092 0.081881 -0.316403
0.005736 0.078362 -0.248700
0.027519 0.093310 -0.393268
-0.040670 0.104222 -0.138367
-0.012068 -0.164162 0.442139
0.021685 0.185153 -0.262265
-0.054697 0.114947 -0.404000
-0.026333 0.057173 -0.426950
-0.003459 0.224577 -0.051202
-0.011488 -0.001505 0.472027
0.017657 0.175939 -0.372694
0.002624 0.030040 -0.268594
-0.013618 -0.028764 -0.253974
-0.014160 -0.001710 0.208268
0.007875 -0.030128 -0.197967
-0.024086 -0.008878 -0.168612
-0.036115 0.088236 -0.436494
0.029138 0.091168 -0.134415
-0.045277 0.106445 -0.404735
-0.029650 0.021940 -0.212718
0.053184 0.195436 -0.059443
0.015138 0.094887 -0.253717
0.031794 -0.009105 -0.316369
0.057566 0.176870 -0.058424
-0.005357 -0.012093 0.209768
0.031559 0.070072 -0.439901
0.017056 0.002078 0.197069
-0.015597 0.168622 -0.413934
-0.015398 0.012716 0.005796
