-0.369286 0.249830 0.322766
-0.464321 -0.067829 -0.097817
0.322956 -0.127054 -0.049523
-0.492237 -0.247750 0.047305
-0.223742 -0.110303 0.168097
-0.134121 0.047726 0.365813
0.015353 0.212374 -0.280240
0.345599 -0.194310 -0.240853
-0.177725 -0.245596 -0.239827
-0.015713 -0.147253 0.079594
0.173727 -0.187091 0.083413
-0.151131 -0.030615 0.324758
0.396890 -0.069802 -0.268004
-0.476729 -0.074762 0.024153
0.046340 0.112888 -0.038832
-0.128591 -0.008686 0.344156
0.352648 -0.146390 -0.040829
0.165759 -0.349412 -0.149202
0.082806 0.204650 -0.222750
-0.084779 0.088068 0.415995
-0.446141 -0.244287 0.115245
-0.038505 0.077233 0.439837
0.374637 -0.166789 -0.168620
0.109278 -0.112848 0.092401
-0.066753 0.139387 -0.124233
0.262702 0.159015 -0.310870
-0.246415 -0.154148 0.128427
0.144284 -0.368759 -0.167036
0.233032 -0.276317 -0.371363
0.247463 -0.014503 0.064785
-0.226203 -0.096513 0.243666
0.480155 -0.048983 -0.371743
0.369076 -0.020770 -0.239332
0.012989 0.218003 -0.260552
-0.107291 0.072162 -0.339157
0.090875 -0.351315 -0.340254
0.223710 0.169862 -0.185270
-0.166649 -0.225007 -0.268901
-0.376868 0.054530 0.047039
0.012175 -0.360148 -0.198656
-0.471040 -0.027698 0.113329
-0.291198 -0.206823 -0.299151
0.032161 0.242594 -0.294393
-0.093300 -0.014445 0.056346
-0.196667 -0.295016 -0.123191
-0.353514 -0.150638 0.255741
0.352062 -0.155463 -0.098387
0.430250 -0.056947 -0.260176
0.095756 0.192878 -0.221555
-0.021473 0.044548 0.298683
0.011008 0.120855 -0.004956
-0.351653 -0.189853 -0.274842
-0.240379 -0.192107 0.141840
0.108654 -0.258154 -0.063006
0.227731 -0.309823 -0.357877
-0.091422 0.128168 -0.053958
0.449365 -0.095141 -0.295958
-0.317954 0.276841 0.304024
0.383079 -0.148440 -0.265990
-0.436315 -0.290762 0.083228
0.116128 -0.162282 0.112427
0.094496 0.192875 -0.241529
-0.218772 -0.058890 0.152996
-0.486665 -0.141910 0.065712
-0.447426 -0.179131 0.136865
0.422380 -0.084636 -0.260773
-0.439746 -0.104441 0.170844
-0.367997 -0.016231 0.251470
0.192339 -0.248547 -0.049532
-0.334303 0.051127 0.028806
0.213314 -0.288454 -0.144863
-0.445988 -0.234122 0.105030
-0.159174 -0.237074 -0.269551
0.156578 0.182962 -0.400058
0.070154 -0.353101 -0.357558
-0.270487 0.016703 -0.336964
-0.342528 0.019383 0.066452
-0.243848 0.009716 -0.329887
-0.472505 -0.086506 0.143119
-0.242401 -0.246727 -0.293139
-0.306612 0.325141 0.358383
0.119365 -0.117948 0.087776
0.453019 -0.100209 -0.352179
-0.358316 0.160277 0.312813
-0.365692 -0.044242 -0.318116
-0.082180 -0.017822 0.055630
-0.302909 -0.226450 0.229572
-0.369144 0.238263 0.370236
-0.486166 -0.218341 0.073988
0.396678 -0.117772 -0.152126
0.254609 0.036947 0.029161
-0.359162 -0.245114 -0.009005
-0.369276 -0.308056 0.079495
-0.053712 0.145330 -0.138346
-0.445545 -0.107861 -0.187212
-0.083318 -0.287832 -0.129096
0.120396 -0.264342 -0.065194
0.399451 -0.006572 -0.279688
0.401158 -0.079767 -0.416493
0.208791 -0.284080 -0.050756
0.192303 -0.134370 0.108406
-0.457277 -0.148871 0.108845
-0.302688 0.322487 0.334715
0.097396 -0.153219 0.106235
-0.272107 -0.228458 0.191782
0.144083 0.212342 -0.164940
0.155224 -0.164108 0.072886
0.054335 -0.348130 -0.199657
-0.270794 -0.144845 0.194606
0.275054 -0.010422 0.060390
-0.354554 -0.115047 0.265450
-0.467080 -0.270373 0.129531
-0.366017 0.200909 0.297709
0.089687 -0.319007 -0.361751
-0.279643 0.001904 -0.333835
-0.461522 -0.230605 0.187888
0.437164 -0.122324 -0.408634
-0.217110 -0.191481 -0.307251
-0.121742 0.098724 -0.311781
-0.202973 -0.021701 0.201247
-0.047845 0.115532 -0.065280
0.207884 -0.274724 -0.024546
-0.016399 0.115332 0.354047
-0.086239 -0.279077 -0.091373
-0.266801 -0.214317 0.196753
-0.168785 0.088649 -0.315327
-0.285448 -0.259854 -0.241116
0.319735 0.081707 -0.353625
0.186729 0.126129 -0.126646
-0.402989 -0.332414 0.061254
-0.037488 0.126233 -0.091471
0.435125 -0.089122 -0.246909
0.226183 0.164098 -0.141948
-0.212686 -0.068546 0.211933
-0.420284 -0.225927 -0.166505
0.185992 -0.339832 -0.156145
-0.265825 -0.017762 -0.381305
-0.113828 0.144697 -0.076346
0.204713 -0.310904 -0.123268
-0.016720 0.129567 -0.016043
-0.431321 -0.093277 -0.106626
-0.444862 -0.031888 -0.016532
-0.393542 -0.201401 -0.101011
0.360837 0.071167 -0.291702
-0.339824 0.065402 0.200052
-0.450889 -0.134536 0.135575
-0.273828 0.060045 0.055406
0.083964 -0.347698 -0.241666
-0.016688 -0.252681 -0.076629
-0.129316 -0.125024 0.076523
-0.331863 0.026689 0.048938
-0.369109 0.229420 0.331311
-0.329465 -0.325351 0.026702
0.335044 -0.256493 -0.209005
0.060289 -0.094942 0.101671
0.357396 0.000693 -0.229127
-0.101122 -0.020876 0.288012
-0.311502 -0.309504 0.104433
0.368484 -0.020042 -0.179510
-0.462727 -0.089371 0.114118
0.070703 0.211552 -0.366058
-0.428304 -0.277840 0.047137
-0.381991 -0.131112 -0.279218
-0.463248 -0.079182 0.219432
0.000103 0.092163 0.364367
0.241302 0.158947 -0.308246
0.104645 -0.337428 -0.204453
-0.025043 0.053542 0.297762
-0.417886 -0.085499 -0.254497
0.113439 0.105547 -0.019815
-0.210580 -0.022563 0.278355
0.207688 -0.336988 -0.187809
0.313290 0.106167 -0.382919
0.191739 0.141664 -0.103219
0.244509 -0.311051 -0.338873
0.026944 0.107184 0.350006
-0.202214 0.022077 -0.365689
0.237961 -0.316562 -0.157754
-0.427910 -0.006597 -0.047836
-0.412804 -0.282564 0.202110
0.077175 -0.357500 -0.306948
-0.040113 0.074935 0.385405
-0.223998 -0.240071 -0.263266
-0.021426 0.161518 -0.096775
-0.336256 0.263080 0.249994
-0.471832 -0.226403 0.159899
-0.369035 0.137389 0.328283
0.047806 -0.004012 0.097851
0.064164 -0.146920 0.098086
-0.352244 0.049762 0.019854
0.331361 -0.201599 -0.047192
0.199377 -0.123448 0.073418
0.241405 0.127207 -0.348504
0.250838 -0.293494 -0.353956
0.148168 0.175938 -0.334901
-0.386258 -0.031785 0.266647
0.158022 0.168026 -0.321275
0.027764 -0.184902 0.074007
-0.398888 -0.307161 0.012587
0.005343 0.244184 -0.214077
-0.395337 0.251936 0.361036
-0.264511 -0.128152 0.167283
-0.174089 0.126263 -0.163697
-0.339118 -0.287743 0.099345
-0.145753 0.102217 -0.273713
0.058980 0.192839 -0.354343
0.361743 0.008997 -0.269633
-0.208767 -0.011539 0.252224
0.492365 -0.051576 -0.305681
-0.340102 -0.091844 -0.324468
0.003585 0.224383 -0.316567
-0.201901 -0.007622 0.110062
-0.259838 -0.042727 -0.363806
-0.340661 -0.133979 -0.289908
0.141162 -0.331947 -0.207643
0.284128 -0.210136 0.020360
0.481349 -0.144006 -0.345350
-0.140302 0.147045 -0.119607
0.464724 -0.152749 -0.290778
-0.365752 0.172224 0.265846
-0.441350 -0.052360 -0.093881
0.363363 -0.220207 -0.197606
0.325687 0.051016 -0.344320
0.189609 0.157717 -0.337123
0.036939 -0.255909 -0.064256
0.117515 -0.274246 -0.038512
-0.317580 0.036434 0.124538
-0.418481 -0.262383 0.204795
-0.442034 -0.139002 -0.059706
-0.158291 -0.047568 0.247233
-0.286829 -0.204192 -0.265064
-0.090019 0.134677 -0.164904
-0.139327 -0.231224 -0.335492
-0.429538 -0.237285 -0.022454
0.176877 0.177608 -0.392138
0.311448 0.057545 -0.362075
-0.055995 0.140754 -0.115240
-0.316334 -0.071344 -0.345401
0.092027 0.151294 -0.070450
-0.412082 -0.228250 0.194685
0.407084 -0.080733 -0.225535
-0.375458 -0.201185 -0.073778
-0.411533 -0.286151 0.063642
0.233343 -0.059948 0.106139
-0.356443 0.238058 0.292294
-0.451478 -0.057139 -0.092092
-0.262085 -0.069962 -0.359992
-0.500960 -0.141420 0.074175
-0.391486 0.180155 0.307561
-0.307493 -0.215827 0.222623
-0.147626 -0.007903 0.229038
-0.386478 0.126223 0.299806
-0.115844 0.082785 -0.263100
0.158159 0.169531 -0.167798
-0.324891 0.264425 0.339557
0.080980 -0.348038 -0.168938
-0.358461 0.044779 0.107261
-0.251414 -0.159779 0.148756
0.372510 -0.051440 -0.223102
-0.444860 -0.043680 -0.029499
-0.110202 -0.016410 0.286219
0.025918 -0.358770 -0.284141
0.016507 0.085844 0.353143
-0.402755 -0.078930 -0.268759
0.231344 -0.053834 0.088128
-0.393246 -0.188385 -0.072978
-0.364849 -0.315886 0.002480
-0.290914 -0.231252 0.188837
-0.260800 0.070116 0.029156
0.023912 0.194172 -0.325470
0.117384 0.125801 -0.085124
-0.104262 0.132790 -0.049231
-0.114382 -0.255999 -0.329569
0.127373 -0.322437 -0.331740
-0.195449 0.083885 -0.299184
0.334965 -0.069434 -0.057525
-0.457356 -0.143856 0.162387
-0.037499 0.144208 -0.062625
-0.038371 -0.126048 0.045730
-0.331406 0.246738 0.290942
-0.055625 0.120963 -0.082195
-0.425645 0.007675 0.029789
0.364722 -0.224927 -0.220025
0.259535 -0.033379 0.074815
0.140796 0.214529 -0.167346
0.148305 0.217789 -0.268866
-0.375506 -0.285299 0.201007
0.246891 0.120697 -0.338049
0.101805 -0.333039 -0.174130
-0.328630 0.178782 0.229284
-0.145503 -0.234709 -0.261254
-0.413551 -0.237073 0.193234
-0.313766 0.059035 0.068255
-0.367923 -0.213327 0.265971
0.252602 -0.302864 -0.346050
-0.284140 -0.198867 -0.268189
-0.435299 -0.078728 0.010960
-0.286518 -0.116743 -0.340920
-0.094596 -0.123539 0.075555
-0.079122 -0.285188 -0.125911
0.271415 0.033170 0.031288
0.219575 0.172883 -0.169974
-0.386098 -0.333223 0.115569
-0.316266 0.031069 0.061735
-0.385840 -0.304648 -0.002806
0.201759 0.158781 -0.312436
-0.113269 -0.258905 -0.258850
0.009804 0.167033 -0.092795
-0.443498 -0.040789 -0.074718
-0.100750 -0.252383 -0.122407
-0.461784 -0.243646 0.003442
0.275460 -0.259387 -0.372200
0.095476 -0.383566 -0.231584
0.355323 0.012922 -0.255567
-0.068174 -0.143839 0.039403
0.190371 -0.249526 -0.072171
-0.070359 0.077644 0.358260
0.132906 -0.238951 -0.034578
0.196737 -0.273842 -0.109447
-0.211613 -0.060179 0.301297
-0.371170 0.178886 0.357964
0.289068 0.114251 -0.367729
-0.194556 -0.243611 -0.243022
-0.451480 -0.006460 0.089892
0.032613 0.195613 -0.356518
-0.375295 -0.333341 0.148708
0.167362 0.165200 -0.205853
-0.368789 0.199840 0.363489
-0.432746 -0.082224 -0.099543
0.292305 -0.118688 0.035710
-0.159389 -0.243856 -0.059042
-0.359112 -0.097821 -0.311503
-0.343285 0.241353 0.336516
0.038458 -0.370991 -0.237076
0.186036 -0.181351 0.063712
0.115784 -0.048963 0.121264
0.155905 -0.051349 0.107519
-0.426110 -0.116552 -0.035976
-0.239746 -0.256544 -0.252017
-0.481743 -0.133154 0.216654
0.284285 -0.041063 0.060601
-0.118458 -0.051152 0.085304
0.194021 0.118568 -0.093237
-0.457607 -0.151554 -0.118163
0.071690 0.220933 -0.300999
0.197863 -0.327150 -0.308743
0.301228 -0.273846 -0.274118
0.009932 -0.234172 -0.029061
0.275165 -0.267504 -0.367175
0.240107 -0.311181 -0.327485
0.075976 -0.324998 -0.353978
-0.279328 -0.053444 -0.314599
-0.323610 -0.188682 -0.300942
0.138123 -0.248978 0.001939
-0.158159 0.144129 -0.144860
-0.295516 -0.067740 -0.349139
-0.395727 -0.227581 -0.059686
-0.119247 0.135918 -0.075564
0.241353 0.163609 -0.217604
0.258896 0.121517 -0.343444
0.484396 -0.112558 -0.267749
0.230324 -0.314264 -0.357717
-0.341308 -0.303516 0.034942
-0.338349 0.154229 0.224054
-0.225649 -0.011316 -0.355738
0.354598 0.085618 -0.292029
-0.049374 0.049591 0.296127
0.029781 -0.329361 -0.263612
-0.465881 -0.303344 0.059788
-0.394272 -0.106355 -0.231502
-0.082930 0.116521 -0.039460
-0.102391 0.035534 0.418395
-0.442112 0.011895 0.047993
0.403333 -0.051657 -0.188660
0.430451 -0.034185 -0.441975
-0.352947 -0.317002 0.134586
-0.027981 -0.279228 -0.087648
0.318035 -0.260927 -0.288949
-0.424358 -0.105081 -0.098920
-0.144562 0.111967 -0.129054
0.339166 -0.030966 -0.017549
-0.318331 0.311382 0.372348
0.143694 -0.324300 -0.331331
-0.362824 -0.265979 0.187862
0.202862 0.198940 -0.219618
-0.096186 -0.243816 -0.015233
-0.165272 0.011336 0.348707
0.131292 -0.366457 -0.220156
0.105843 0.199132 -0.249159
-0.210402 -0.286906 -0.159985
-0.160746 -0.269050 -0.065800
-0.375246 -0.283620 0.194683
0.038482 -0.004991 0.080364
0.098286 -0.337885 -0.402296
-0.198416 0.072260 -0.322648
-0.106651 0.021307 0.333783
-0.391162 -0.199123 -0.180786
-0.437234 -0.153245 -0.193975
-0.316132 0.272135 0.310415
0.159358 -0.304763 -0.117546
-0.263824 0.012027 -0.314180
0.163238 -0.300255 -0.118773
-0.353561 -0.296051 0.017358
-0.072557 -0.253061 -0.019233
-0.256605 -0.198895 0.215413
-0.052492 -0.275381 -0.092565
-0.002505 -0.119465 0.065401
-0.207741 -0.208038 -0.291341
-0.135289 -0.282277 -0.197912
0.383702 -0.032027 -0.145359
-0.399401 -0.000269 0.038376
-0.474953 -0.197733 0.120044
0.383989 -0.015246 -0.080205
0.138645 -0.332866 -0.402406
-0.368099 -0.252186 -0.104414
-0.282735 -0.242022 -0.281892
0.033507 0.225718 -0.354736
0.255290 0.160457 -0.331176
0.120972 -0.023444 0.107423
-0.084579 0.093343 -0.330633
0.086959 -0.093871 0.110618
0.326227 -0.178169 -0.098737
-0.487444 -0.241636 0.062736
-0.261105 0.004383 -0.385642
-0.030242 -0.226523 -0.004532
0.222249 -0.296602 -0.169960
-0.469606 -0.165917 0.183955
-0.208682 0.015517 0.070265
-0.001621 0.128293 -0.092721
0.237542 -0.306821 -0.185680
-0.245954 -0.148542 0.210317
-0.434895 -0.206998 -0.078762
-0.387869 0.231576 0.364687
0.192233 -0.121688 0.088704
-0.435390 -0.094732 -0.246884
0.248145 -0.052739 0.080716
0.397251 -0.156485 -0.212764
0.256091 -0.270886 -0.073160
0.346677 -0.213220 -0.066600
-0.110778 -0.157403 0.043086
0.253170 -0.039029 0.061585
-0.236677 -0.255648 -0.255491
-0.159119 -0.245537 -0.363722
-0.353243 -0.138158 -0.306276
-0.420614 -0.104199 -0.169881
-0.104459 -0.091544 0.051448
-0.351406 -0.170822 0.273258
-0.239858 -0.058303 -0.363020
-0.368292 -0.157408 0.274157
-0.177197 0.081405 -0.321149
-0.386794 -0.198406 -0.087591
0.014850 -0.222210 0.002800
-0.160525 -0.040712 0.237698
0.343340 -0.194429 -0.291266
0.392920 0.003186 -0.229596
-0.213474 0.017455 -0.398635
0.201625 -0.012358 0.091302
0.361566 -0.121094 -0.038951
0.263985 -0.213463 -0.013115
0.323064 -0.212593 -0.103407
-0.359744 -0.309259 0.030187
-0.221017 0.015093 -0.405400
-0.356471 0.299196 0.348954
0.066917 -0.289193 -0.054956
0.308897 -0.257790 -0.240194
0.065937 0.232649 -0.306447
-0.342624 -0.047256 -0.322925
0.353465 0.061958 -0.326745
-0.372752 0.045715 0.103751
0.295453 -0.268367 -0.251393
-0.445581 -0.041029 0.171788
-0.231231 -0.150358 0.108383
0.237912 0.133749 -0.386765
0.060104 -0.348395 -0.346704
-0.127017 0.005222 0.368693
-0.074859 -0.063215 0.052559
0.250588 -0.301893 -0.322431
-0.452793 -0.121985 -0.185671
-0.058090 -0.092410 0.050159
-0.390275 -0.194168 -0.245723
0.082252 -0.015638 0.068340
0.371185 -0.121801 -0.155355
0.273554 -0.148200 0.011306
0.006428 0.101676 -0.027689
-0.375233 0.015137 0.170318
-0.382921 0.281343 0.386868
-0.495219 -0.122743 0.078525
-0.467727 -0.179051 0.209970
-0.467321 -0.192086 0.188131
-0.468746 -0.056348 0.018112
0.156533 0.128065 -0.063268
0.313561 0.114479 -0.282514
-0.481791 -0.130454 0.205046
-0.411608 -0.047894 0.187645
-0.178569 0.080102 -0.245393
-0.215628 -0.262736 -0.259822
-0.212587 -0.130608 0.170424
-0.176628 0.039652 -0.320873
-0.446069 -0.114723 -0.016628
-0.100820 0.063741 0.340779
0.190059 -0.312786 -0.320483
0.021423 -0.340842 -0.228401
-0.089759 0.123802 -0.119262
0.259627 -0.284213 -0.132704
0.135379 -0.369416 -0.232812
-0.114539 -0.294843 -0.152123
-0.151762 0.148667 -0.145166
-0.402895 -0.187470 -0.055622
-0.088984 0.141587 -0.271143
0.053191 0.243727 -0.230082
-0.401533 0.211593 0.349533
-0.095457 0.036900 0.411110
-0.363496 0.091842 0.307465
0.446306 -0.087062 -0.265412
0.258991 -0.271476 -0.322880
-0.308257 -0.282808 0.138574
-0.200845 -0.018392 0.097722
-0.139947 -0.024294 0.302087
0.066527 0.107963 -0.053383
-0.098162 -0.265864 -0.135726
-0.284216 0.006927 -0.323249
-0.226111 -0.088843 0.208994
-0.412255 -0.291100 0.190760
-0.150762 0.098601 -0.191915
-0.302138 0.362206 0.378608
-0.202857 0.029581 -0.357864
-0.318946 -0.136825 -0.307126
-0.274132 -0.263219 -0.249493
-0.386298 -0.207196 -0.105585
-0.362379 -0.243121 -0.233623
0.231914 0.018151 0.034761
-0.045967 -0.088189 0.088711
0.318961 0.056120 -0.272184
-0.092034 -0.174880 0.034387
-0.096217 0.084483 -0.285902
-0.211021 -0.023163 0.281986
0.139550 0.187215 -0.157985
0.054612 0.123176 -0.007458
0.066753 -0.185783 0.073220
-0.061301 0.083793 0.454268
0.090580 -0.357598 -0.137847
-0.169811 -0.245798 -0.064877
-0.114100 -0.250570 -0.241894
-0.448693 -0.286476 0.141382
-0.453114 -0.213619 0.085263
-0.444034 -0.030173 -0.045834
-0.326936 -0.106602 -0.338681
-0.192692 0.029642 0.052990
-0.437108 -0.312537 0.124395
-0.310041 -0.126727 -0.329116
0.308561 -0.027171 -0.023142
0.073601 0.136916 -0.048262
-0.061668 0.109415 -0.078263
-0.335096 0.117689 0.229613
-0.259916 -0.015256 -0.399504
0.371341 -0.106848 -0.158937
0.186696 0.093139 -0.061770
-0.344684 0.084183 0.182794
-0.170471 -0.014570 0.233957
-0.223224 -0.036187 0.225534
0.201910 -0.125797 0.105350
-0.114439 -0.243874 -0.029511
-0.099749 -0.271238 -0.304036
-0.318873 -0.318281 0.042236
0.156367 -0.294521 -0.100642
0.154756 -0.326977 -0.322863
0.176997 -0.017642 0.108808
0.143148 -0.317747 -0.214967
0.152739 -0.345273 -0.117892
-0.324112 0.266327 0.354688
-0.154017 0.138725 -0.139462
-0.269238 0.013525 0.069485
0.035926 -0.087679 0.092316
-0.189773 -0.004329 0.246401
-0.159090 0.104968 -0.271031
-0.046726 0.075525 0.423556
0.025227 0.215201 -0.234045
0.275837 0.114181 -0.339873
-0.367758 -0.201672 -0.208966
0.297549 0.104483 -0.287885
0.288318 -0.215936 -0.001939
-0.257540 -0.191523 0.109116
0.261824 -0.199503 0.042513
0.025778 0.217124 -0.205276
-0.395897 -0.156437 0.274680
-0.158093 -0.222247 -0.326999
-0.252031 0.050387 0.084531
0.025123 0.204263 -0.332920
0.239729 0.164975 -0.213577
0.122161 -0.314253 -0.380770
-0.114812 0.050460 0.393503
0.371829 -0.036371 -0.215025
-0.097412 0.144560 -0.077191
-0.150203 0.100421 -0.218121
-0.359989 -0.243975 -0.015824
-0.087950 0.102467 -0.325283
0.133245 -0.014734 0.067972
-0.492447 -0.217213 0.083551
0.414989 -0.090711 -0.283018
0.312315 -0.073975 -0.003900
-0.384184 -0.196662 -0.039756
-0.214349 0.009536 0.109536
-0.434893 -0.147245 0.161260
0.201871 -0.319082 -0.317280
-0.079828 0.109443 -0.310934
-0.034025 0.131670 -0.017790
-0.362767 0.092009 0.313207
-0.166101 -0.277349 -0.125348
-0.171054 0.100427 -0.285786
0.328177 -0.219727 -0.062197
0.049446 0.129769 -0.004505
-0.457207 -0.195467 0.126195
-0.060122 0.033664 0.287504
0.224122 0.181965 -0.191973
-0.462412 -0.053060 -0.156335
0.155064 -0.133256 0.073704
0.017777 0.107253 -0.004964
0.224584 0.007005 0.072076
-0.260078 -0.169978 0.166834
-0.220270 -0.177981 0.129065
0.221686 0.176036 -0.144075
-0.120851 -0.098875 0.093560
-0.002615 0.118027 0.349485
0.291248 -0.245560 -0.293062
-0.142206 0.118127 -0.156899
0.024597 0.139793 0.370782
-0.460718 -0.212156 0.179371
-0.100483 -0.266993 -0.173344
-0.408875 -0.173154 0.250466
0.166635 -0.304634 -0.082166
0.154060 0.184218 -0.368881
0.087155 -0.295977 -0.027956
0.487688 -0.148255 -0.360769
-0.305803 0.327857 0.340952
0.127383 0.128860 -0.040435
0.138740 -0.151213 0.074748
0.225205 -0.207170 0.055543
0.272879 0.093085 -0.381540
-0.453178 -0.290867 0.137478
0.143808 -0.280808 -0.085227
0.138175 0.210078 -0.134235
0.182124 -0.135605 0.071304
0.210235 -0.235612 -0.021456
-0.212542 -0.080026 0.222486
0.370154 -0.131215 -0.230601
-0.080184 0.078136 0.418911
-0.345934 -0.073426 -0.326893
-0.005564 -0.251736 0.004852
-0.432919 -0.005927 0.027497
-0.384041 -0.235747 -0.096605
-0.156945 -0.264380 -0.346720
0.372845 0.056554 -0.207244
-0.097475 -0.155275 0.037535
-0.343300 -0.274686 -0.197030
-0.339868 0.111533 0.222104
-0.099203 0.156586 -0.141798
-0.337432 0.319004 0.331442
0.335410 0.046604 -0.340246
-0.337449 0.133718 0.238806
-0.498564 -0.126715 0.094805
0.160872 0.099178 -0.046786
0.101815 -0.258179 0.003617
0.205603 -0.013689 0.100115
-0.266393 0.023636 0.127987
-0.116309 -0.123608 0.080716
-0.247368 -0.082368 -0.345056
0.024012 0.117959 -0.042547
-0.424666 0.011459 0.183981
-0.408940 -0.192786 -0.075959
0.364731 -0.183363 -0.066903
0.411735 -0.129831 -0.262859
-0.296474 -0.247221 0.207515
-0.021020 -0.084195 0.072493
0.346101 -0.062120 -0.073699
-0.298082 -0.223297 0.191220
-0.339594 0.168328 0.276107
0.208949 -0.315245 -0.377804
-0.375867 0.223284 0.320706
0.276345 0.028429 -0.009259
-0.084385 0.066624 -0.361201
0.008071 -0.369469 -0.238763
-0.451933 -0.149212 -0.088916
-0.412930 0.023077 0.011567
-0.175675 0.054355 0.035877
0.208426 0.192746 -0.244872
-0.228736 -0.146152 0.147184
0.145508 -0.019162 0.070772
0.061389 -0.084340 0.111648
-0.079966 -0.017685 0.058467
0.286417 0.043653 -0.011244
0.221603 0.162831 -0.376517
-0.092149 -0.246372 -0.091932
0.147830 -0.242406 -0.032141
-0.348060 -0.311159 -0.000629
-0.044849 -0.155164 0.058155
-0.368013 -0.246945 -0.012135
-0.320704 -0.198149 -0.296459
-0.369301 -0.098713 -0.267443
0.144507 0.009329 0.054451
-0.300138 -0.248655 0.146650
0.058513 -0.185692 0.067290
-0.165623 -0.279048 -0.271887
-0.388560 -0.045301 -0.254816
0.434378 -0.078071 -0.399502
-0.434261 -0.272136 -0.012718
-0.420768 -0.214814 0.202611
-0.453594 -0.169941 0.118078
0.315948 0.074695 -0.371734
-0.164136 -0.256437 -0.356429
-0.262453 -0.245620 -0.278802
-0.478247 -0.239948 0.031156
-0.113736 -0.007237 0.054427
0.381865 -0.101995 -0.069743
-0.373881 -0.119419 -0.303703
0.073277 0.139105 -0.046945
0.205367 -0.135311 0.059410
0.094281 0.224650 -0.213634
-0.259814 0.076671 0.021401
-0.406732 -0.255212 -0.027715
0.196049 0.141178 -0.167192
0.267316 -0.120362 0.040973
-0.164073 -0.258159 -0.185957
-0.142859 -0.238185 -0.086365
-0.420494 -0.015694 0.245359
-0.155436 -0.244589 -0.239612
-0.424260 -0.219255 0.186166
-0.295429 -0.026781 -0.303848
-0.143425 0.115389 -0.180981
-0.425359 -0.250820 0.167674
0.307586 -0.115985 -0.025859
0.326885 0.053829 -0.366514
-0.379041 0.120766 0.260167
0.086827 0.186928 -0.396088
-0.321636 0.301176 0.315875
0.012393 0.142833 -0.088292
-0.074062 -0.239039 -0.065180
0.076887 0.154226 -0.107519
-0.169856 -0.244353 -0.220447
-0.376435 -0.251372 -0.160285
0.017318 0.126069 0.412463
-0.397888 0.006257 0.086042
0.379565 -0.070321 -0.203658
0.316379 -0.200321 -0.003229
-0.026903 0.101604 0.358619
-0.096897 -0.229315 -0.053690
0.084488 0.119285 -0.069606
0.436132 -0.126162 -0.252910
0.190578 0.158178 -0.324410
-0.148346 0.034796 0.341012
-0.045359 0.014500 0.298171
-0.189999 -0.004495 0.300658
-0.456234 -0.120015 0.111411
-0.203757 -0.274323 -0.115531
-0.420480 -0.047752 -0.050560
-0.072297 0.112029 -0.026943
0.021133 0.131669 0.355608
0.033083 -0.325422 -0.368360
-0.200297 -0.091262 0.137564
0.146411 -0.314651 -0.144760
-0.435357 -0.030840 0.206463
0.469920 -0.050357 -0.402484
0.038361 -0.274379 -0.018575
-0.231201 0.060434 0.060653
-0.397002 -0.108136 -0.227633
-0.428600 -0.113376 -0.220232
0.201231 -0.153622 0.051697
0.335483 -0.159834 -0.079752
0.109870 0.036105 0.087465
0.190437 0.145993 -0.090330
-0.255317 -0.005406 -0.386060
0.150278 0.214670 -0.189762
0.374011 0.059141 -0.243892
0.175457 0.169026 -0.123949
0.400220 -0.080517 -0.271955
-0.379880 0.030200 -0.003936
-0.312531 0.322052 0.315378
0.125588 -0.174539 0.071249
-0.384105 -0.209533 -0.138026
0.030149 -0.254011 -0.034444
-0.262364 -0.182052 0.118545
-0.494252 -0.232467 0.056575
-0.327929 -0.195498 -0.311951
0.068649 -0.118243 0.084817
-0.066079 0.144152 -0.120304
-0.210850 0.038746 0.086410
-0.203105 0.014698 0.105105
-0.096250 -0.279405 -0.095751
-0.495581 -0.204353 0.083414
-0.130314 -0.273607 -0.069857
-0.238599 -0.185669 0.096983
0.199849 0.098140 -0.062489
-0.116813 0.075717 -0.281708
-0.313360 -0.238579 -0.215621
-0.465347 -0.099835 0.222318
0.297931 -0.031044 0.038325
0.135400 -0.341284 -0.215148
0.071125 0.189397 -0.382856
-0.270199 -0.174358 0.198061
-0.416657 -0.253329 0.164987
-0.385540 0.019536 0.231190
0.478574 -0.045059 -0.376010
-0.393238 -0.301473 -0.004873
0.493927 -0.120514 -0.310198
-0.122725 -0.232952 -0.339631
-0.388325 0.004001 0.133699
-0.362971 0.272252 0.331456
0.363840 -0.179775 -0.169654
-0.395767 -0.071964 -0.280286
0.079051 -0.122002 0.113336
0.080981 -0.345632 -0.189804
-0.496374 -0.228285 0.071626
0.460751 -0.043860 -0.358917
-0.272459 0.051208 0.064875
-0.272357 -0.072413 -0.353239
0.004183 -0.349640 -0.238462
-0.236652 -0.104399 0.130340
-0.099715 0.131376 -0.155406
-0.460555 -0.298420 0.096781
-0.036409 0.106123 -0.057889
-0.124909 -0.241315 -0.301011
-0.105279 0.122910 -0.250178
-0.478653 -0.177188 0.197551
0.084568 0.108623 -0.040300
0.200740 0.148184 -0.080955
0.131845 -0.245301 -0.043628
-0.419668 -0.084969 -0.169374
0.098802 -0.343998 -0.263685
-0.479624 -0.285383 0.031586
-0.403422 -0.222971 -0.196019
0.152917 -0.348192 -0.135483
0.328718 0.050287 -0.056875
0.095140 -0.272697 -0.019182
-0.200237 -0.069682 0.263242
0.211393 0.164988 -0.303851
0.381688 -0.085276 -0.064475
0.432192 -0.060473 -0.264012
0.227751 0.107273 -0.052464
-0.113185 -0.021820 0.273663
-0.146201 -0.005926 0.331408
-0.424441 -0.122844 -0.173162
0.231988 -0.308159 -0.373534
-0.249163 -0.184274 -0.302319
0.278303 0.143714 -0.340354
0.182353 0.126060 -0.041467
-0.188683 0.077957 0.048748
-0.024313 0.037909 0.320530
0.402126 0.000015 -0.155919
0.149529 -0.274474 -0.079285
-0.207980 -0.256999 -0.273186
0.453718 -0.082325 -0.431112
-0.259802 -0.122350 0.264136
0.107608 -0.131509 0.085728
0.022518 -0.238177 0.022170
-0.133385 0.036643 0.374013
-0.207295 0.015324 -0.365605
0.136038 -0.357414 -0.321050
-0.241524 -0.251697 -0.284623
0.367456 0.048849 -0.235116
0.073614 -0.176622 0.067620
-0.471628 -0.071038 0.037501
0.083096 0.230476 -0.280404
-0.001568 0.162311 -0.100754
-0.172899 -0.056357 0.255706
0.062430 -0.191528 0.070581
-0.254828 -0.201894 0.100439
0.068511 0.240306 -0.253682
-0.359456 -0.221296 -0.095681
0.280509 -0.168730 0.050527
-0.489361 -0.244670 0.073642
-0.068688 -0.058767 0.050544
-0.114096 -0.012512 0.082815
0.394323 0.004800 -0.207613
-0.362752 0.054988 0.058021
0.421853 -0.069580 -0.410119
-0.234482 -0.231646 -0.300202
-0.058070 -0.218448 -0.022231
-0.207206 -0.023900 0.288516
0.127274 -0.110715 0.088736
-0.437144 -0.055587 -0.086901
0.477747 -0.155473 -0.339500
0.244826 0.107461 -0.083860
-0.483987 -0.285627 0.071798
-0.351768 0.044548 0.122360
0.182200 0.186771 -0.359792
-0.351217 0.156150 0.296276
0.222470 -0.277768 -0.322310
-0.365296 -0.144886 -0.275268
0.449604 -0.047841 -0.284365
0.169360 0.204930 -0.189719
-0.021794 -0.234843 -0.024277
-0.354998 0.019696 0.240490
-0.405112 0.019774 -0.007806
0.075628 0.226457 -0.272381
-0.065347 0.021227 0.287804
-0.358194 0.102337 0.294464
0.073173 -0.323166 -0.322431
0.326295 -0.214278 -0.042592
0.089912 -0.374984 -0.218272
-0.449273 -0.158626 0.152423
-0.140518 -0.022205 0.305598
-0.181350 -0.037796 0.232897
-0.122800 0.125395 -0.247051
-0.299063 -0.252440 -0.212914
0.060806 0.024728 0.082919
-0.033984 -0.222254 0.001976
0.389893 -0.171769 -0.206298
-0.436503 -0.117441 -0.038742
0.172472 -0.326807 -0.319357
0.124561 -0.029457 0.105927
-0.124311 -0.005742 0.348385
-0.415062 -0.032484 0.011463
0.467090 -0.050896 -0.308807
0.246585 -0.276176 -0.380779
-0.408929 -0.304550 0.086670
-0.298305 -0.082287 -0.338127
-0.363763 0.251383 0.260942
-0.389381 -0.017166 0.148833
0.011955 -0.359573 -0.252983
0.349721 -0.036804 -0.061331
-0.240264 0.043323 0.083621
0.147060 -0.268630 -0.020153
0.368058 0.036988 -0.303533
-0.211139 0.050312 -0.392689
-0.207722 -0.029769 0.184310
0.267600 0.094802 -0.374515
0.038303 0.202521 -0.292293
-0.399609 -0.254820 0.214132
0.429612 -0.091593 -0.264519
-0.122354 0.010489 0.367978
-0.294795 -0.191881 0.217248
-0.198519 0.096910 -0.287528
0.041600 -0.024321 0.079493
0.030037 -0.350407 -0.321211
-0.388550 -0.261471 -0.024572
0.145282 -0.246887 -0.041505
-0.462139 -0.089356 0.012435
0.298927 0.017855 -0.034853
-0.333196 0.274206 0.324607
-0.399038 0.027562 -0.010547
0.142436 -0.267134 0.017183
-0.138143 0.032306 0.383134
0.140043 -0.315920 -0.398979
0.154122 -0.192958 0.089283
-0.358142 0.023146 0.251956
-0.012445 -0.167664 0.055373
0.305021 -0.246286 -0.347654
0.031861 0.155040 -0.104328
0.083345 0.206276 -0.358879
-0.246028 -0.034948 -0.404316
-0.076625 -0.278029 -0.108012
0.318664 -0.261676 -0.351911
-0.400036 -0.331520 0.143470
0.160165 -0.246931 -0.055155
-0.276662 0.029684 0.126410
0.124589 0.034283 0.105834
0.182179 -0.037493 0.073213
-0.211257 -0.079638 0.175820
-0.130347 -0.281247 -0.119768
-0.305233 -0.253999 0.182697
-0.447788 -0.220142 0.121952
0.045434 -0.321372 -0.321501
-0.061081 -0.214708 -0.015287
0.244272 -0.034302 0.045288
-0.353870 -0.170716 0.252317
0.158985 0.180413 -0.407156
-0.061330 -0.277121 -0.063304
-0.454305 -0.142674 -0.127792
0.390415 0.037098 -0.187424
-0.366743 0.136788 0.332225
0.214556 -0.178037 0.038274
0.244360 0.167960 -0.203219
0.169037 -0.146011 0.074268
0.371383 -0.209202 -0.187235
0.148190 -0.333517 -0.173507
0.188164 -0.294513 -0.394028
0.373754 -0.118704 -0.219447
-0.352999 0.119715 0.212230
-0.441821 -0.154190 -0.072989
-0.383402 -0.293678 -0.003946
0.134238 0.186600 -0.398607
-0.295691 0.038324 0.025687
0.141183 0.120006 -0.011170
-0.429214 -0.180734 -0.046691
0.279220 0.012458 0.003723
-0.263494 -0.244633 -0.247219
-0.009704 0.133120 -0.054756
0.477096 -0.110494 -0.270678
-0.373552 -0.288988 0.104806
-0.137947 0.146063 -0.178269
-0.321655 0.374243 0.384002
-0.463085 -0.080301 0.148564
-0.424473 -0.120340 -0.182050
-0.233499 -0.230599 0.096704
0.211774 -0.294794 -0.308589
-0.162171 0.044460 0.041136
0.070252 -0.340614 -0.233396
-0.179542 -0.272819 -0.136228
0.190255 0.157499 -0.350874
-0.197642 -0.062626 0.253401
0.350889 0.009040 -0.051902
-0.406711 -0.001280 0.065414
-0.454822 -0.065712 0.216442
-0.363154 -0.308491 0.002101
-0.177110 0.090803 -0.223423
0.132724 -0.355774 -0.251689
-0.348857 0.098942 0.269900
0.120339 -0.042045 0.088551
-0.387643 -0.013327 0.177217
-0.323735 0.048595 0.010323
-0.464410 -0.159218 0.204435
-0.369912 -0.317426 0.150295
0.249679 -0.312230 -0.297027
-0.107703 0.023746 0.292092
-0.403992 -0.015230 0.173092
0.200359 -0.288905 -0.054851
-0.238027 0.070611 0.034204
0.279663 -0.120973 0.067450
-0.371835 -0.014441 0.204366
-0.465950 -0.291682 0.076036
-0.154185 0.015241 0.051961
-0.090185 0.021541 0.326706
-0.083530 0.157353 -0.244825
-0.133094 -0.137384 0.067531
0.218632 -0.032192 0.099769
0.193136 -0.330144 -0.147381
0.222220 0.146051 -0.196082
-0.424720 -0.246644 0.229040
0.163033 -0.192197 0.062733
-0.352019 0.053730 0.052315
0.105093 -0.242161 0.016732
0.401444 -0.020812 -0.271257
-0.468290 -0.261301 0.000747
0.079529 0.192836 -0.262185
-0.347474 -0.263570 0.136288
-0.347279 -0.246759 -0.212731
-0.474292 -0.077384 -0.123930
-0.389968 -0.023503 0.173194
0.460694 -0.119235 -0.258232
-0.270388 -0.196448 0.125230
-0.468081 -0.078212 0.171220
-0.437336 -0.267059 -0.018600
-0.363091 0.048025 0.092839
0.342894 0.032429 -0.077458
0.052037 -0.234437 0.006132
0.231838 0.048348 0.056089
-0.140684 -0.062222 0.101357
0.114862 -0.331605 -0.345833
0.466263 -0.156951 -0.306507
0.392632 -0.144080 -0.150212
-0.389953 -0.183264 0.228785
-0.360318 0.335156 0.409304
0.272354 -0.295686 -0.292399
0.267785 0.098140 -0.367090
0.019686 0.248385 -0.214508
0.021043 0.109488 0.347562
-0.477572 -0.144604 0.158086
-0.398674 -0.063433 -0.240559
-0.349144 0.030529 0.204381
-0.256134 0.001285 -0.400381
0.251112 -0.288333 -0.351287
0.250176 -0.155319 0.025330
0.200434 -0.021728 0.062907
-0.459613 -0.120170 0.226705
-0.310004 -0.308058 0.040359
0.377355 -0.159069 -0.166770
0.046626 -0.377733 -0.240775
-0.357142 0.206885 0.335470
0.347943 -0.013522 -0.085612
0.050991 0.199226 -0.285143
0.106530 -0.163076 0.068387
0.155436 0.007875 0.103086
-0.220153 -0.187363 -0.350160
-0.151547 0.005317 0.311636
0.060550 0.018888 0.101297
-0.396982 -0.336226 0.116287
-0.314357 0.361178 0.388143
-0.309585 -0.180942 -0.296851
0.184048 0.157571 -0.106249
-0.350115 -0.201461 0.266289
-0.169062 -0.266520 -0.061857
-0.071481 -0.242829 -0.025947
0.317172 0.085588 -0.390650
-0.318383 -0.327274 0.075421
-0.477531 -0.266529 0.026118
-0.126349 0.050371 -0.349393
-0.157317 0.045291 -0.321122
0.457135 -0.124821 -0.342220
-0.485226 -0.176432 0.046425
-0.346765 0.023522 0.020766
-0.424512 -0.241234 0.237944
0.192837 0.109877 -0.089849
-0.421527 -0.105278 -0.174052
0.028313 0.199598 -0.332774
0.099544 0.193441 -0.252491
-0.094547 0.148380 -0.248190
-0.204048 -0.202011 -0.328534
-0.443328 -0.016566 0.114308
0.379306 -0.127003 -0.088618
0.096322 -0.361076 -0.346378
0.199009 0.000879 0.054629
0.162755 -0.227770 -0.021271
0.064368 0.225042 -0.270783
0.275787 -0.137674 0.071827
0.018516 0.127874 -0.083716
0.364315 -0.063046 -0.090023
0.178683 -0.303350 -0.076156
-0.381758 0.001533 0.163170
-0.409411 -0.112417 -0.202448
-0.006565 0.107241 0.387523
-0.400545 -0.306139 0.005388
-0.096303 -0.295279 -0.105047
0.148211 0.162133 -0.132356
-0.443692 -0.079745 0.158513
0.371591 -0.089212 -0.085668
-0.404343 -0.220801 -0.153875
0.175617 -0.240397 0.020702
-0.417539 -0.035015 0.173935
0.308415 -0.208045 -0.009965
-0.237414 -0.208344 0.132133
-0.394635 -0.244594 -0.133077
0.412920 -0.061920 -0.253862
-0.444618 -0.167404 -0.139904
-0.319599 -0.263861 0.094111
0.208431 0.143817 -0.355961
-0.440853 -0.094231 -0.007910
-0.319477 -0.013778 -0.325727
-0.122742 -0.125192 0.057585
-0.040623 0.163222 -0.104663
0.417871 -0.117418 -0.436281
-0.104768 0.154057 -0.112559
0.341154 0.037151 -0.254755
-0.300988 0.014981 0.118624
-0.412595 -0.280214 -0.019688
0.265256 -0.284007 -0.272804
0.148917 0.100787 -0.007834
-0.325715 0.337691 0.413042
-0.449812 -0.230873 0.095867
-0.345261 0.020786 0.084221
-0.052844 -0.272520 -0.090432
-0.404430 -0.329347 0.156262
-0.385818 0.183238 0.342943
-0.398937 -0.305666 -0.012153
-0.025928 -0.245989 -0.063919
-0.257551 0.023345 -0.341409
0.120730 0.207810 -0.317783
-0.433170 -0.156479 -0.211766
0.405786 -0.007140 -0.222591
0.044509 -0.349773 -0.339616
0.253231 -0.264440 -0.322103
-0.224912 0.043870 -0.401219
0.319619 -0.232590 -0.235405
-0.374772 0.039352 0.001625
-0.248650 -0.125480 0.257529
-0.034805 0.093248 0.412231
-0.438258 -0.047732 -0.093583
0.129352 -0.036254 0.083110
-0.392043 0.039541 0.036083
-0.425482 -0.214588 0.218738
-0.302166 0.054601 0.061981
-0.372659 0.276567 0.407544
0.099655 -0.098306 0.105251
-0.412422 -0.319004 0.139999
0.254401 -0.035530 0.047939
-0.477055 -0.122859 0.148666
-0.253569 -0.074544 0.242173
-0.045463 0.123824 0.403488
0.031935 0.110710 0.359894
-0.472386 -0.202154 0.172520
-0.451160 -0.133886 -0.033354
-0.497458 -0.126303 0.069367
0.192623 0.175733 -0.129334
-0.169800 -0.221366 -0.302940
-0.458847 -0.206259 0.143032
0.240763 0.045182 0.040793
-0.119189 0.072049 -0.280556
-0.341432 -0.331449 0.107014
-0.165027 0.000942 0.262822
0.122595 -0.342157 -0.233556
0.042393 -0.330377 -0.301263
0.273348 0.113255 -0.399685
0.202211 -0.338844 -0.206278
-0.178033 -0.011527 0.260881
0.261817 -0.134400 0.088477
-0.357491 0.140074 0.303463
-0.085169 0.141467 -0.053930
-0.405638 0.018167 0.191261
0.215653 -0.243746 -0.026145
-0.244367 -0.179111 -0.325351
-0.209422 -0.267670 -0.183881
0.198575 0.185631 -0.360329
-0.154224 -0.045251 0.280989
0.149164 0.126800 -0.043422
-0.191674 -0.004034 0.343436
-0.163289 -0.262799 -0.346793
-0.345411 0.011435 0.033838
0.317466 -0.260502 -0.218241
-0.266297 -0.218373 0.145603
-0.003582 0.099347 -0.037521
-0.125252 0.122732 -0.103942
0.278623 -0.267543 -0.261091
-0.447019 0.001711 0.128343
0.208551 0.148337 -0.079476
-0.407584 -0.063175 0.252676
0.390032 -0.050740 -0.258109
0.220324 0.175389 -0.222131
-0.209726 0.022343 -0.399238
0.245794 -0.175523 0.056347
0.229612 -0.314391 -0.301288
-0.182770 -0.226566 -0.289507
-0.434293 -0.294802 0.002706
-0.379110 -0.268474 0.169882
0.387781 -0.004718 -0.259040
0.297701 0.070210 -0.376475
-0.350361 -0.308030 0.136499
0.484000 -0.121753 -0.369944
-0.001286 0.144230 -0.069261
-0.343607 0.053495 0.264368
-0.020791 0.085737 0.321686
-0.361129 0.300395 0.356236
0.088015 0.217195 -0.281540
0.055558 -0.375674 -0.218957
-0.063380 -0.235129 0.004083
-0.145853 -0.008436 0.239242
-0.236531 -0.127436 0.140871
0.367704 -0.047994 -0.186326
0.107297 0.194194 -0.372250
-0.348753 0.196893 0.316283
0.293010 -0.279480 -0.259694
-0.141988 -0.268736 -0.347821
-0.332200 -0.270799 -0.173491
-0.371382 0.311196 0.410231
-0.341374 -0.083371 -0.281670
0.310579 -0.256970 -0.334350
-0.114510 -0.251680 -0.044156
-0.131967 -0.267272 -0.298997
-0.383283 0.010574 0.167521
-0.345917 -0.297476 0.094754
0.111083 -0.005064 0.108919
0.033128 -0.245102 -0.019539
-0.157812 -0.237262 -0.144431
0.236576 0.122693 -0.362549
-0.180423 0.000870 0.224059
-0.102572 0.052164 0.401676
-0.447202 -0.064707 0.020947
0.349538 -0.064512 -0.073418
-0.437198 -0.129327 -0.040457
0.041430 -0.237062 -0.034946
0.238790 -0.311061 -0.124150
0.077489 -0.381429 -0.221599
-0.443976 -0.116297 0.210994
0.097048 -0.248942 0.013063
0.313528 -0.118509 0.036973
0.360330 0.018956 -0.199228
-0.153157 -0.247213 -0.123617
-0.253695 -0.094166 0.228434
0.476405 -0.104804 -0.392666
0.247627 0.150667 -0.203695
0.242173 -0.216942 0.029243
-0.294988 0.368819 0.351207
0.379189 -0.050497 -0.261196
-0.198394 0.047424 -0.408705
0.404845 -0.098408 -0.195124
-0.087479 -0.159249 0.041414
-0.418449 -0.299561 0.097019
-0.388797 0.031621 0.103309
-0.367791 0.249209 0.280543
-0.314887 0.047340 0.039935
-0.356692 0.063496 0.286981
0.208236 0.150669 -0.370534
0.214693 0.113226 -0.043706
-0.048638 -0.229353 0.003367
-0.217124 -0.031356 0.305212
0.285356 -0.177609 -0.016802
-0.052574 -0.050821 0.079935
0.239243 -0.189542 0.067312
0.279581 -0.042414 0.010486
-0.246322 -0.233543 0.088244
0.113896 -0.028027 0.111823
-0.284257 -0.274528 0.059741
-0.382599 0.196982 0.310333
-0.351334 -0.030081 -0.297465
0.168644 -0.057524 0.101044
0.404854 -0.109600 -0.277419
0.051655 0.187421 -0.324352
-0.388012 -0.245418 0.233180
-0.444934 -0.250739 0.105298
-0.122650 0.124431 -0.122628
-0.371045 0.053945 0.293390
-0.059742 0.149611 -0.152388
-0.061497 -0.030686 0.075015
-0.095259 0.128799 -0.215937
0.411965 -0.077980 -0.441914
-0.192540 -0.101199 0.135683
0.090246 -0.266030 0.005221
-0.280960 -0.244958 0.077968
-0.106746 0.137601 -0.274480
-0.458735 -0.053671 0.194082
-0.175130 0.034745 -0.356644
-0.458185 -0.126713 0.085286
-0.423737 -0.303416 0.166541
0.209580 -0.004368 0.047999
0.096967 -0.370872 -0.254801
0.040907 0.212229 -0.249445
-0.140592 0.034661 0.327246
-0.324105 -0.265229 -0.226417
-0.187029 -0.211804 -0.308870
-0.115235 0.015244 0.053301
-0.263647 -0.061185 -0.328982
0.305885 0.010379 -0.031219
0.354768 -0.098220 -0.029412
0.114055 -0.013862 0.073319
0.459405 -0.119545 -0.367217
-0.447712 -0.068530 -0.153582
0.003496 -0.268322 -0.023690
0.009120 -0.342428 -0.274465
-0.422535 -0.255794 0.144530
-0.233327 -0.057273 0.275350
-0.118002 -0.023604 0.091573
-0.127553 -0.250371 -0.349229
0.094013 -0.250486 0.027833
-0.181627 0.070668 0.043249
-0.090328 0.051147 0.313846
0.305157 -0.221161 -0.263908
0.080784 -0.355504 -0.137262
-0.357684 0.351148 0.408988
0.453823 -0.052187 -0.280319
-0.093344 0.133025 -0.137346
0.244701 -0.277852 -0.108915
0.109436 0.234771 -0.185481
0.407419 -0.067284 -0.154208
-0.121796 0.014607 0.403364
-0.168746 -0.029917 0.337060
0.073160 -0.160583 0.099426
-0.003737 -0.092525 0.061733
-0.261916 -0.123900 0.203156
-0.417953 -0.037960 -0.036450
-0.484785 -0.119664 0.078258
0.420990 -0.107300 -0.431424
0.035298 -0.344625 -0.224142
0.484622 -0.118604 -0.269216
-0.416860 -0.199071 -0.184624
0.012293 0.224878 -0.228738
0.068452 -0.035410 0.095754
-0.458181 -0.156816 -0.090032
-0.426522 -0.130079 -0.158189
-0.336773 0.169395 0.306671
-0.444903 -0.045907 -0.132418
0.242216 -0.264564 -0.102971
0.151027 -0.319855 -0.114676
-0.237547 -0.054856 0.300760
0.253712 -0.168477 0.014790
0.013488 -0.252002 0.011366
0.330842 -0.075934 -0.050144
-0.277475 -0.061107 -0.322880
-0.093322 -0.019970 0.077790
-0.170985 0.109134 -0.211412
0.409727 -0.097431 -0.212431
-0.331553 0.018074 0.118569
0.175342 -0.268884 -0.093366
0.187130 -0.332333 -0.163166
-0.424262 -0.206599 -0.155539
-0.161532 0.064210 -0.380350
-0.263611 -0.144136 0.225327
-0.300128 -0.306433 0.065726
0.075761 0.189657 -0.270225
0.095988 -0.372710 -0.160791
0.104401 -0.288549 -0.061727
0.193191 -0.277684 -0.103477
-0.389749 -0.262831 0.007039
0.160363 -0.332982 -0.355903
0.157169 0.208612 -0.210327
0.268181 -0.133879 0.031924
-0.277873 -0.063173 -0.352426
-0.075291 -0.031540 0.071296
0.131578 0.120045 -0.013707
-0.227322 -0.016906 -0.376568
0.107274 0.224002 -0.168515
-0.408973 -0.220689 -0.199148
-0.429343 -0.131673 -0.175681
0.156755 -0.348029 -0.349360
-0.144443 -0.275225 -0.093809
0.271246 -0.276176 -0.250714
0.435224 -0.095253 -0.298965
0.089165 -0.041819 0.106400
-0.129279 0.151491 -0.125533
-0.000641 -0.089480 0.089818
-0.397343 -0.103850 -0.283827
0.006392 -0.352071 -0.203992
-0.132644 -0.040068 0.101044
-0.323709 0.359537 0.373074
-0.067202 0.009343 0.278958
0.186885 0.199924 -0.249925
0.173266 0.152919 -0.143567
-0.297510 -0.223771 0.112075
0.399176 -0.028943 -0.198786
-0.277216 -0.230065 0.220913
-0.349812 0.301046 0.278446
-0.380933 0.057230 0.292770
0.145065 -0.132182 0.083648
0.036660 -0.003975 0.097788
-0.361665 0.060040 0.293675
-0.389513 -0.190706 -0.108005
0.134401 0.181281 -0.227540
-0.236191 -0.157893 0.220757
-0.301640 -0.115546 -0.339773
0.130194 0.196104 -0.292921
0.010459 0.106487 -0.064571
-0.348155 -0.210787 -0.043639
-0.013616 0.101686 0.396413
0.351865 0.086964 -0.264582
-0.376870 0.143307 0.260132
0.351155 -0.181503 -0.055026
-0.358046 0.247434 0.378223
-0.395053 -0.188759 -0.095340
-0.331068 0.065878 0.256715
-0.208364 -0.061546 0.174745
-0.103839 0.061459 -0.366994
-0.363008 -0.266596 -0.013386
-0.091613 0.139133 -0.241303
0.434467 -0.123468 -0.394614
-0.344823 0.285994 0.274592
-0.316314 0.302202 0.303821
0.332988 0.058579 -0.038975
0.234476 -0.162966 0.046528
0.474782 -0.152450 -0.347858
0.199524 0.171400 -0.302547
-0.013823 0.051623 0.313806
-0.389011 -0.196486 -0.084733
0.225573 -0.133180 0.049326
0.046884 -0.343398 -0.186393
0.406521 -0.032455 -0.184400
-0.439490 -0.311209 0.113569
-0.432672 -0.063329 0.258852
-0.003635 0.141385 0.413839
-0.392102 0.029943 0.208901
-0.444170 -0.052599 0.118524
-0.372706 0.171226 0.294538
0.099982 0.205314 -0.363455
-0.462694 -0.079482 -0.090162
-0.041062 0.091745 0.442751
-0.354238 0.158204 0.326054
-0.467342 -0.133108 -0.095937
-0.455838 -0.234082 0.200754
-0.448865 -0.209859 0.162476
-0.134090 0.034128 0.063975
0.194832 0.184633 -0.155365
-0.167873 -0.257584 -0.212080
-0.239679 -0.104982 0.251428
-0.144576 0.017662 0.335090
-0.199807 -0.048160 0.305935
-0.113808 0.161600 -0.158830
0.354961 -0.194605 -0.179338
0.316536 -0.259695 -0.308873
0.429567 -0.039287 -0.405625
-0.264272 -0.000380 -0.376976
-0.125954 -0.080577 0.060189
-0.372336 0.286089 0.363090
-0.287702 0.067145 0.023686
0.241597 -0.311595 -0.307351
-0.366680 -0.244055 0.231839
-0.451510 -0.190162 0.127911
-0.112240 0.076929 -0.348865
0.030659 -0.286446 -0.064322
0.150152 -0.322331 -0.135895
0.107501 -0.293187 -0.063184
-0.439895 -0.105268 -0.213753
-0.343883 0.211205 0.233523
-0.138853 -0.237019 -0.075960
-0.225243 -0.154641 0.167270
0.012414 0.232254 -0.334544
-0.436083 -0.268044 0.110682
0.168935 0.204954 -0.159639
-0.478877 -0.186080 0.124469
0.055350 -0.238634 -0.001060
-0.145686 -0.273186 -0.247312
-0.141254 0.131720 -0.102280
-0.236605 -0.217468 0.127586
0.215932 0.162765 -0.136266
0.022839 -0.095251 0.090733
0.340804 -0.201553 -0.085223
0.290638 -0.143902 0.049348
-0.208530 0.057081 -0.388827
-0.308901 -0.079053 -0.340882
0.154612 0.165806 -0.346953
-0.321921 -0.241055 -0.192296
-0.394618 -0.233089 -0.089801
-0.369414 -0.301868 0.048351
0.144192 0.204337 -0.283283
-0.048011 -0.260802 -0.031811
0.329122 -0.128768 -0.061981
0.235202 -0.021837 0.052623
-0.113599 0.166723 -0.205585
0.450843 -0.086774 -0.421158
0.407307 -0.060014 -0.162438
-0.154291 -0.014936 0.061942
0.402279 -0.070484 -0.209549
-0.185572 -0.019905 0.076567
-0.424918 -0.058265 -0.056378
-0.097926 -0.168579 0.055124
-0.207740 -0.078004 0.215646
-0.383374 0.221362 0.327123
-0.060033 0.118559 -0.072978
0.082311 -0.036480 0.097879
-0.023551 -0.118269 0.082047
0.384452 -0.188375 -0.242548
0.227196 -0.051952 0.097314
-0.185611 0.077534 -0.334794
-0.399715 -0.281945 0.210615
0.432675 -0.089523 -0.295638
0.376245 -0.162381 -0.072223
0.013427 -0.367581 -0.230063
-0.178800 -0.036177 0.232929
-0.378680 -0.315173 0.151728
-0.405004 -0.283613 0.129239
0.172416 0.158421 -0.369776
-0.164119 -0.238192 -0.247540
-0.378063 -0.275285 -0.029571
0.037164 -0.086654 0.105323
0.271539 0.141116 -0.359929
0.145736 -0.054969 0.116086
-0.190371 -0.253545 -0.090278
-0.354070 0.011416 0.241738
-0.454064 -0.188634 0.096450
-0.365616 0.269248 0.335195
-0.354753 -0.205090 0.263033
-0.078562 0.062111 0.311596
-0.263711 -0.190552 0.119146
-0.250657 0.020007 -0.369442
-0.352063 0.288983 0.282270
-0.420096 -0.215844 -0.111627
0.286267 -0.222359 -0.000835
0.109251 -0.341769 -0.158837
0.319326 -0.225074 -0.271963
-0.016717 0.128258 -0.022472
0.029052 -0.250743 0.014989
0.184447 -0.183466 0.049373
-0.459337 -0.175558 0.117114
-0.195089 0.060025 0.066544
-0.333848 0.340176 0.372356
-0.146940 -0.024684 0.345206
0.150072 -0.302655 -0.081917
0.257326 -0.048295 0.063868
-0.238174 -0.056304 -0.380852
-0.455832 -0.254179 0.178073
-0.095142 -0.152679 0.075209
-0.397369 0.034587 0.234882
-0.449572 -0.313217 0.086902
-0.198194 0.011440 0.062570
0.399171 -0.147499 -0.181491
-0.126032 0.084147 -0.329427
-0.006420 -0.234260 0.013788
0.404833 -0.098258 -0.212100
0.084798 0.229949 -0.263799
0.014906 -0.136102 0.062441
-0.456305 -0.308057 0.069997
-0.449704 -0.163847 0.132565
-0.359088 0.023439 0.008620
0.288089 -0.251069 -0.267880
0.169479 -0.347935 -0.140142
-0.087746 -0.237979 -0.069214
-0.261132 -0.120667 0.267722
0.177135 -0.324245 -0.102999
0.478437 -0.042233 -0.393402
-0.142739 0.042980 0.048459
-0.461130 -0.025769 0.023910
-0.061647 0.009898 0.290200
0.156474 -0.004560 0.077173
-0.109210 0.021288 0.283748
-0.408436 -0.231285 0.241664
-0.448405 -0.030715 0.163580
-0.386794 0.134181 0.310637
-0.349813 -0.136402 0.278194
0.039490 0.117149 -0.006246
-0.190245 0.031615 -0.380008
-0.362460 -0.251963 -0.110225
-0.285441 -0.235053 -0.250229
-0.451545 -0.250394 0.195926
0.094722 0.107581 -0.060307
0.102209 -0.338762 -0.149177
-0.249338 0.031368 0.128307
-0.297450 -0.253209 -0.234523
-0.248458 0.013790 -0.400945
-0.332989 0.234465 0.276960
-0.373292 -0.092332 -0.250654
-0.344345 -0.134807 0.283477
-0.123506 0.092850 -0.311634
0.288935 -0.049788 0.000813
-0.345647 0.040973 0.024971
-0.403073 -0.119155 -0.198827
0.239355 0.148763 -0.326459
0.294701 0.015266 -0.010568
0.056462 -0.324255 -0.323073
0.249198 -0.266380 -0.067253
-0.080578 0.157882 -0.112518
-0.368775 -0.236663 -0.005309
-0.429228 -0.115843 -0.052146
0.163030 -0.257353 0.007243
-0.032529 0.120286 -0.062210
-0.245215 -0.231945 0.114377
-0.109221 0.031463 0.058898
-0.456690 -0.060395 0.036793
-0.329306 0.366780 0.383318
-0.036562 -0.229087 -0.000287
-0.062106 -0.243204 0.007400
-0.141870 0.116246 -0.164386
0.122519 -0.376928 -0.206684
0.453203 -0.120868 -0.362480
-0.433097 -0.220831 -0.019222
-0.362251 -0.335701 0.109813
0.331759 -0.083810 -0.048817
0.148264 -0.326490 -0.177885
-0.387999 0.157232 0.289920
-0.014395 0.113841 -0.060747
-0.387844 -0.226295 -0.228224
-0.316637 0.320956 0.383961
0.089122 -0.341655 -0.264254
-0.393911 0.033313 0.189369
-0.309526 0.026159 0.066667
-0.256973 -0.081755 0.277797
-0.358303 0.053687 0.085589
-0.077099 -0.062560 0.086122
0.174192 -0.033748 0.077383
0.398938 -0.037820 -0.188438
0.086034 -0.241666 -0.000875
-0.098140 0.065376 0.347642
-0.136786 0.030305 0.078775
-0.383891 -0.012350 0.175714
-0.362429 -0.319647 0.146566
-0.395273 -0.044243 0.257981
0.413776 -0.078986 -0.193400
-0.434514 -0.142065 -0.071059
-0.469861 -0.132756 -0.127369
-0.140835 -0.243823 -0.227085
0.172538 0.167268 -0.338127
-0.048476 -0.226070 -0.012127
-0.129287 -0.248150 -0.241236
-0.112690 -0.260015 -0.174162
0.272860 -0.302334 -0.270423
-0.177696 0.042681 -0.318095
0.329590 0.064925 -0.357332
0.361584 0.013466 -0.225443
-0.175160 -0.008714 0.255118
-0.447947 -0.078143 0.239277
-0.356344 0.292981 0.297488
-0.147244 -0.089795 0.107568
-0.389028 -0.245085 -0.149122
-0.195751 -0.288453 -0.177262
0.160055 0.097455 -0.022258
-0.451720 -0.072496 0.116582
-0.345430 0.046230 0.053786
-0.364702 -0.241467 -0.220093
-0.099849 0.129225 -0.166622
-0.361096 0.209478 0.278010
-0.380800 0.201900 0.359214
0.053066 0.221889 -0.347970
0.211262 -0.313176 -0.096193
-0.122133 -0.119338 0.063633
0.227554 -0.286050 -0.056512
-0.216931 0.062484 -0.328274
0.194394 -0.130093 0.076746
-0.273517 -0.237975 0.061930
0.172203 -0.152061 0.072132
-0.378162 -0.017811 0.217928
0.143750 -0.343155 -0.384589
0.306400 -0.111160 0.020010
0.151457 0.204685 -0.196472
