-0.331955 -0.092184 -0.021344
0.072253 -0.030271 0.015004
0.364579 -0.062976 -0.005743
-0.123318 0.119898 -0.019151
-0.165518 -0.096855 -0.013782
-0.458108 -0.069772 0.002838
-0.091793 -0.051281 -0.030099
0.032928 0.117159 -0.025648
0.485017 -0.020717 0.013850
-0.204762 0.082588 0.023227
-0.410740 -0.013830 0.026775
-0.139839 -0.003242 0.026914
-0.200040 -0.116305 0.025067
-0.123873 -0.068563 0.021324
-0.364174 0.058187 -0.003590
-0.401387 -0.046706 -0.034022
-0.088949 0.019295 0.022287
0.107683 -0.054180 0.011084
-0.431196 0.019323 0.013160
0.219444 0.007538 0.025956
-0.299672 -0.141470 0.009597
-0.364445 0.066693 0.009286
-0.235718 0.076688 0.023645
-0.200684 0.092475 -0.026529
-0.032418 -0.055427 0.006128
-0.109750 0.015240 -0.023746
0.285665 -0.147440 -0.015414
-0.397000 -0.015502 -0.001123
-0.147366 -0.145664 -0.014623
-0.300978 0.010283 0.023109
0.154696 0.028777 0.018215
-0.070579 0.144744 -0.002707
0.089141 0.031235 0.011921
-0.129836 -0.087830 -0.020494
0.062399 -0.063506 -0.006667
0.118722 -0.017450 -0.020313
0.028286 0.133101 -0.014600
0.239369 0.049957 -0.020244
-0.254127 -0.088873 0.000141
-0.384843 -0.113471 -0.005833
-0.028241 -0.014318 -0.021851
0.426602 -0.024363 0.028110
-0.210091 -0.153053 0.008403
0.398547 -0.069846 0.021695
0.251204 -0.090445 0.004231
0.228627 0.115649 -0.020295
-0.325559 -0.072396 -0.000576
-0.220163 0.056224 -0.017103
-0.294783 0.094938 -0.000201
-0.250402 0.047557 0.026241
0.038485 -0.084853 -0.026573
0.281525 -0.097352 -0.005171
-0.265843 0.106207 0.011259
-0.002129 0.010559 -0.022072
0.038591 0.151664 -0.005595
0.033975 -0.148493 -0.005753
0.233869 0.111827 0.014800
0.037960 0.002366 -0.016532
-0.179332 -0.001030 -0.023897
0.188118 -0.074997 -0.014492
-0.243398 -0.133346 -0.018947
-0.238007 -0.141911 -0.004131
-0.106779 0.093528 -0.016906
0.215095 0.049086 -0.000407
-0.137095 -0.003370 0.018046
0.125602 0.135772 0.010874
-0.499035 -0.002817 0.005133
-0.152079 -0.030571 0.031456
0.332443 0.007264 -0.021787
-0.339658 0.040274 0.018317
-0.218002 -0.016986 -0.022757
-0.339411 0.047823 -0.018575
0.115144 -0.151152 -0.016833
0.137932 -0.091782 0.021393
-0.052541 -0.060624 -0.005693
0.190764 -0.061483 -0.003536
0.190276 -0.070500 -0.008087
-0.068926 0.124263 0.023963
0.111177 0.142965 -0.022299
0.427840 -0.073378 -0.021751
-0.306687 0.100978 -0.000342
-0.060798 -0.028568 -0.031999
0.390777 -0.106319 -0.018428
-0.047495 0.114017 -0.020816
-0.155929 0.128878 -0.003082
0.172625 -0.020945 0.009683
0.393159 -0.009567 -0.020253
0.273605 0.088738 0.017512
-0.028151 -0.122302 -0.008966
-0.131265 0.113499 0.017547
0.449465 0.001356 -0.019526
0.433429 0.007640 -0.017818
-0.127718 -0.052481 0.011789
0.255597 0.008142 0.032351
0.298074 0.074784 0.021835
-0.156675 -0.109207 -0.022943
-0.336305 -0.070127 0.022909
-0.286201 0.078500 0.012058
0.030652 -0.084477 -0.024097
-0.361110 0.070910 -0.017960
0.324735 -0.075757 -0.003942
0.281932 -0.095328 -0.017705
0.145839 0.063842 0.006815
0.187002 0.066744 -0.000932
0.073464 0.014957 -0.018252
-0.114058 0.139837 -0.004504
-0.418024 -0.034779 -0.019620
-0.291165 -0.146093 0.022863
0.430342 -0.001111 -0.015668
-0.035224 -0.051497 -0.022273
-0.141092 -0.113932 -0.024148
-0.097889 0.017906 -0.025282
-0.250124 0.115105 0.003500
-0.370440 -0.081121 0.020499
0.213341 -0.143162 -0.018504
-0.015689 0.024100 -0.021098
0.060631 0.133970 0.018887
-0.208203 0.072617 -0.020454
0.179716 0.092639 0.019394
-0.193370 0.090847 -0.025512
0.135312 0.006583 0.017535
0.308552 -0.115444 0.018429
-0.023099 -0.010461 -0.016792
-0.130814 -0.114750 0.023867
0.004892 -0.110336 -0.000547
-0.123430 -0.031931 -0.019971
-0.418403 -0.061259 -0.021485
0.108482 -0.016500 -0.021070
0.082458 0.030836 -0.005274
0.395665 -0.039805 0.020806
0.382945 -0.071630 -0.015948
0.111496 -0.104080 0.002484
-0.174347 0.036299 -0.004839
0.134858 0.007796 -0.017329
0.059693 -0.122137 -0.019319
-0.193697 0.034684 0.019948
0.128036 -0.031761 0.010641
0.296243 0.093629 -0.003308
0.156536 0.012974 0.017048
-0.059840 -0.136756 -0.022050
-0.130904 -0.107694 0.011304
-0.027570 -0.019904 -0.020681
0.171492 -0.043535 0.007636
-0.208667 -0.115963 0.019045
0.008829 0.018446 0.015480
-0.384586 0.032417 -0.013168
-0.221851 -0.105659 -0.015867
0.141991 0.034538 0.016467
0.033927 0.145921 -0.016759
-0.313190 -0.119309 -0.023379
-0.480198 -0.027008 0.010462
-0.174070 -0.147248 0.001909
0.239558 0.054882 -0.018753
-0.208996 0.067810 0.025865
-0.336242 -0.094478 0.019741
-0.041206 0.145281 -0.010729
-0.318273 -0.118054 -0.028398
0.029999 -0.070741 -0.015821
0.308559 -0.133043 0.016482
-0.190583 -0.064924 0.002378
0.286583 0.078123 0.026707
0.065309 0.010388 -0.017179
-0.115232 0.109968 0.021039
-0.023686 -0.148442 -0.004202
-0.096260 -0.063093 -0.007285
0.245033 -0.119768 0.020483
-0.117882 0.036364 0.011643
-0.302098 -0.121783 -0.018261
-0.323791 0.067148 0.016801
-0.158782 -0.032941 0.026508
0.181467 0.132157 0.007957
-0.287165 -0.137497 -0.017590
0.016212 0.084527 0.004267
-0.389415 -0.074142 -0.018842
-0.400414 -0.070350 -0.019583
0.278679 0.094889 -0.015367
0.292931 0.041125 0.020099
-0.016778 -0.020435 0.020062
0.232923 0.119209 0.002252
0.158131 -0.150720 0.014080
0.392486 0.028002 -0.023668
-0.120129 -0.118639 -0.008813
-0.026239 -0.023019 0.026421
-0.377734 -0.074969 -0.014932
0.341079 0.054396 0.015939
-0.117799 -0.114734 -0.010813
0.287343 -0.113630 -0.024821
0.414870 -0.072653 0.022416
0.121317 -0.018667 -0.019731
-0.341478 -0.097392 0.019937
-0.469059 -0.013905 -0.027413
-0.211414 0.023802 0.029659
-0.305555 -0.135326 0.015033
-0.067317 0.143402 0.015512
-0.271235 0.095270 -0.001070
-0.041840 0.093124 0.021450
-0.076147 -0.051129 0.010277
0.095881 -0.080806 -0.011232
-0.191148 0.098311 -0.022264
0.383042 0.056540 -0.011348
-0.237384 -0.017118 -0.017326
0.242173 -0.147499 0.013466
0.132129 -0.129604 -0.017335
0.249147 0.110105 -0.004627
0.142658 -0.102486 -0.014322
0.116137 -0.074656 -0.013536
-0.292756 0.052049 -0.017848
0.016740 0.088711 0.006433
-0.158537 -0.147826 -0.016033
-0.068880 -0.010381 -0.012062
-0.031706 0.086746 -0.004641
-0.145715 -0.011020 -0.005286
0.116338 0.016340 -0.013099
0.263674 -0.005867 0.025344
0.100384 0.120424 0.022633
-0.168354 -0.057030 0.019679
0.223852 0.063260 -0.002612
-0.182793 0.071520 -0.004507
-0.047622 -0.040292 0.019713
0.435722 -0.078466 -0.014482
-0.149292 -0.007385 0.026982
-0.140399 -0.051724 -0.028239
-0.126046 0.084582 -0.023135
0.214955 0.011121 0.014919
-0.182224 0.088969 -0.021490
-0.309078 -0.143812 0.016309
0.437534 -0.068085 -0.010965
-0.397674 -0.061020 0.023350
0.160970 -0.036128 -0.013882
-0.249915 0.116128 -0.000660
0.475339 -0.032401 -0.017677
0.476666 -0.002087 0.010927
-0.088949 -0.062009 0.007652
0.025206 0.027677 0.005567
0.190164 -0.019298 -0.019071
0.256906 -0.124778 -0.020140
0.202086 0.079522 0.019153
0.396969 0.046524 0.025114
0.432828 -0.080349 -0.006291
0.204342 -0.095700 0.013162
-0.375019 -0.118354 0.003985
0.307532 -0.092801 -0.017235
-0.210694 -0.133897 -0.024940
0.302313 0.085966 0.020628
0.392438 -0.094879 0.019002
0.298762 0.096837 -0.003759
-0.306206 0.078599 -0.024042
-0.190281 -0.016279 -0.003290
-0.072567 -0.062494 -0.023027
0.015841 -0.006415 -0.017143
0.055962 0.133325 0.022722
0.171784 0.062384 -0.010020
0.181334 -0.121941 0.019789
0.179476 -0.080860 -0.021978
-0.270504 -0.126840 -0.017035
-0.216989 0.018375 0.015100
-0.192435 0.092442 -0.011341
0.307579 0.071275 0.012137
-0.184868 0.064377 0.016815
-0.103582 0.125759 0.030697
0.187199 0.014782 -0.015300
0.332665 0.070364 -0.029532
-0.056216 -0.111707 -0.027414
0.207944 0.005843 -0.017558
0.278036 -0.143033 0.024328
0.164117 0.074270 -0.000782
0.208726 -0.093495 -0.013011
0.384892 -0.073156 -0.022940
-0.155968 0.079857 -0.020336
-0.169528 -0.153653 0.002023
-0.017234 0.140138 -0.018503
-0.138891 0.026973 -0.004464
0.197471 0.000377 0.028523
0.280455 -0.082937 0.017420
-0.356788 0.076901 0.008385
0.438553 0.028986 -0.011902
0.098777 -0.109921 -0.000754
-0.188577 -0.013991 -0.020733
-0.144383 -0.034112 -0.021819
0.210906 -0.117006 -0.017828
0.152032 0.130378 -0.009354
-0.131015 -0.008643 -0.017826
-0.061751 -0.056392 0.000224
0.364242 0.029259 0.020833
-0.210619 0.121990 -0.021890
0.490589 -0.046424 0.008471
0.327676 -0.117242 -0.025817
0.272777 -0.111709 -0.025749
-0.276417 -0.103620 0.023196
-0.104967 0.137174 0.007059
-0.283815 0.085112 -0.023620
0.279275 -0.094111 0.012865
-0.064589 -0.058898 0.007151
0.087126 0.119400 -0.018448
-0.189492 -0.095854 -0.019471
0.349070 -0.134740 0.011490
0.150821 -0.018462 -0.008529
-0.182775 -0.074167 0.025124
0.326110 -0.146597 -0.004668
-0.122471 0.082006 -0.023471
-0.422076 -0.039925 -0.025068
0.160720 0.123232 0.000841
0.189182 -0.120259 0.018886
-0.155428 0.028685 -0.021957
-0.065088 -0.033325 0.022662
0.209672 0.046331 -0.003653
0.070009 0.010671 0.017281
-0.344045 0.009798 -0.006347
0.173291 0.113624 0.019060
-0.267913 -0.007431 -0.020366
-0.166090 0.108842 -0.015453
-0.008524 0.099905 0.025423
0.055597 -0.120556 -0.005113
-0.234771 0.070399 0.016192
-0.457655 -0.060460 -0.016348
0.052436 -0.138304 -0.019276
-0.336121 0.077619 -0.003446
0.412120 0.024305 0.020218
-0.327960 0.008244 -0.007637
0.211409 0.120806 -0.011075
0.156698 0.122310 0.016334
-0.265545 0.095070 -0.017194
-0.381747 0.057869 0.000576
0.339764 0.028664 0.023575
-0.399197 -0.050360 -0.019166
0.135451 0.032730 0.006970
0.476867 0.015302 0.024725
0.402600 0.025545 -0.017888
0.354017 -0.119855 -0.017465
0.220264 0.038752 -0.026122
-0.437192 -0.010499 -0.023665
-0.409755 -0.062425 -0.013246
0.369060 -0.104905 -0.019339
0.145504 -0.043676 0.037194
0.487121 -0.001189 -0.004931
-0.118138 0.098883 0.014539
-0.401092 0.045110 -0.010498
-0.449984 -0.002998 -0.018163
0.487634 -0.010767 -0.011807
-0.250452 -0.079972 -0.002702
-0.071930 0.003568 0.020146
-0.399745 -0.053696 -0.020412
0.397483 -0.013405 -0.011125
0.047251 0.141394 0.015873
-0.118349 -0.101206 -0.014519
-0.089036 -0.090832 -0.005210
-0.278001 0.034848 -0.019687
0.363471 0.002056 -0.014880
-0.106428 0.022452 -0.017625
0.362777 -0.047490 0.008597
-0.469981 -0.034899 -0.022138
0.189185 0.134286 -0.006213
-0.391671 0.049950 -0.014834
-0.007777 0.098995 0.022857
0.101601 -0.147068 -0.017028
0.051275 0.019082 -0.017501
0.488511 -0.004081 -0.015017
0.059073 0.118066 -0.027309
0.471116 -0.067682 0.005258
0.127549 0.130559 -0.003866
-0.075306 0.149488 0.003807
-0.483334 -0.012559 -0.010087
-0.409419 -0.026042 0.007454
0.330867 -0.120680 -0.025125
-0.222790 -0.153899 -0.000081
0.017378 0.025817 -0.018425
0.185643 0.064530 -0.003190
-0.239628 -0.083655 0.000657
0.228238 0.064082 -0.025697
0.021804 0.011885 -0.018790
0.365143 -0.128488 -0.004381
-0.062718 0.132675 0.014773
-0.018092 -0.090027 -0.020901
-0.161990 -0.106139 0.016078
0.195105 0.000321 0.020492
-0.165207 -0.055398 0.025913
-0.382233 -0.106762 0.001832
0.011032 -0.096010 -0.023657
-0.469541 -0.051219 0.022888
0.054750 -0.122486 -0.007504
0.161323 -0.042074 -0.021418
-0.118599 -0.058353 0.023061
0.346457 -0.077886 -0.019113
-0.335737 -0.127141 -0.033434
-0.395243 0.009803 0.026912
0.367761 0.035180 -0.014229
-0.122250 -0.093419 -0.003907
0.435676 0.033103 -0.021261
0.254793 -0.141652 -0.004539
0.091320 0.029831 0.001628
0.269410 0.061654 0.021060
0.115759 -0.064010 -0.019946
0.466502 -0.066868 -0.008634
0.181896 0.028105 -0.020727
0.242714 0.020148 -0.028056
0.420389 -0.007564 0.018960
0.433594 -0.076640 0.006192
-0.322538 0.071993 0.013837
-0.324596 -0.136191 0.010169
-0.105102 0.137347 -0.011672
0.269011 0.007919 0.008133
-0.497715 -0.030908 0.014195
-0.176320 -0.119717 -0.011238
-0.343924 0.051059 0.027315
0.117184 -0.129122 -0.013097
-0.144932 0.005325 -0.016673
0.372494 0.036731 0.030242
-0.217570 0.004991 0.021976
0.076968 0.118027 0.015857
0.259446 0.074719 -0.016302
-0.328476 -0.065943 -0.003242
0.195930 -0.003678 0.027092
-0.458755 -0.044159 0.013620
-0.142842 -0.087752 -0.022988
-0.125479 -0.025347 -0.019312
-0.161133 -0.030457 -0.023166
-0.246544 -0.087852 -0.005209
0.205491 0.050068 -0.009926
0.283284 -0.086204 -0.012781
-0.298626 0.056917 -0.020288
0.228619 -0.142921 0.016680
-0.471684 -0.035989 -0.019306
0.204837 -0.006371 0.018574
-0.312767 0.088257 -0.018721
-0.452578 -0.013620 0.031092
-0.260033 -0.137711 -0.012307
0.009659 -0.150590 -0.019782
0.198689 -0.001941 0.014159
-0.062842 -0.090571 -0.001415
-0.045024 0.091688 0.019097
0.098030 -0.080476 -0.020423
0.038389 0.092107 -0.005237
0.167705 0.010995 -0.019449
0.217420 -0.112312 0.020509
-0.222574 0.041018 -0.011249
-0.083161 -0.070861 -0.013480
0.380579 -0.098502 0.027044
-0.023925 -0.097507 -0.018806
-0.224166 0.034117 0.026651
0.143667 0.131579 -0.010933
-0.024223 -0.085888 -0.019644
-0.034644 -0.131271 -0.009382
0.156846 -0.103044 -0.013397
0.128893 0.074583 -0.004227
0.221211 -0.148724 0.006207
0.400382 -0.102640 0.012734
-0.402697 -0.005055 -0.024637
-0.163839 0.026798 -0.026032
-0.443650 -0.028820 -0.021305
-0.127000 0.110984 0.018207
0.071447 -0.086130 -0.014316
0.130479 -0.145591 -0.005985
-0.212057 -0.089066 0.000654
-0.277090 0.020615 -0.014321
-0.110134 -0.035917 -0.021049
-0.394126 -0.010904 0.008109
-0.136002 -0.095298 0.001716
0.422414 0.025079 0.019379
-0.390232 -0.071619 -0.015069
0.025444 0.147689 -0.008421
-0.396884 0.043405 0.021860
-0.254595 0.047564 -0.017505
0.177826 0.122982 -0.017810
0.473841 -0.062429 -0.012547
0.149064 -0.134962 0.015577
0.391796 0.048696 -0.009367
0.333087 0.028541 -0.015564
-0.270497 -0.006249 -0.000869
-0.370528 -0.045852 -0.007202
-0.107826 -0.099771 -0.003594
0.096671 -0.008380 -0.010809
0.157989 0.137884 -0.013755
0.380474 -0.067864 -0.015883
0.067753 0.088379 0.006784
0.083225 -0.113131 -0.009012
-0.380975 -0.036077 -0.000698
0.335092 -0.085277 0.020332
-0.069633 -0.126789 -0.022186
-0.422471 -0.058209 -0.021393
-0.146905 -0.102707 -0.013988
0.287354 0.086120 -0.008904
0.008712 -0.074616 -0.021788
-0.444633 -0.034031 -0.016150
-0.383353 -0.066195 0.025618
0.130696 0.029250 -0.001593
-0.174799 -0.083982 0.017803
0.418234 -0.067606 -0.024989
-0.276387 0.073861 -0.016706
-0.032831 0.138050 -0.020278
-0.338890 -0.080007 -0.015275
0.282584 0.049718 0.018371
-0.012607 0.094110 0.006389
-0.170098 0.039416 0.002451
0.163299 0.104744 -0.025805
-0.418402 -0.012818 -0.017562
0.293039 0.050094 0.018359
-0.025274 0.032527 0.017510
-0.294759 -0.127903 -0.009338
-0.164421 0.121223 0.022909
0.277163 0.055773 0.029797
0.487906 -0.037061 0.016211
0.143661 -0.115571 -0.016273
-0.229330 -0.115047 0.018551
0.064970 -0.134812 -0.007061
-0.007456 -0.042166 -0.026347
-0.263764 0.111188 -0.013827
-0.223694 0.028866 0.020945
0.110513 -0.078587 -0.025543
-0.321238 -0.106303 0.018199
0.111864 -0.058202 -0.015668
0.344552 0.024347 0.018886
0.488496 -0.047519 -0.019812
-0.321197 0.080261 -0.021464
0.271567 0.009084 -0.021470
-0.167362 0.016015 -0.015353
0.361929 -0.109908 -0.025518
-0.212394 -0.144939 0.022712
0.104968 -0.036056 0.015832
-0.426892 0.011702 -0.021076
0.234600 -0.133763 -0.023755
0.210270 -0.005248 -0.017422
-0.433459 -0.067161 0.002182
0.055663 -0.032604 -0.014605
0.009173 -0.003210 -0.016678
-0.072600 0.103682 0.020104
0.073795 -0.137502 -0.014968
-0.179947 0.026371 -0.016770
-0.207421 -0.020608 0.010254
0.264179 -0.141813 -0.022173
0.140179 -0.097155 0.009337
0.099977 0.088199 0.021820
-0.158611 -0.125691 -0.011791
-0.128674 0.147569 0.020773
0.349973 0.037641 -0.027688
0.053060 -0.149328 -0.004891
-0.332913 -0.127954 -0.020066
-0.104479 0.094725 -0.011361
0.013839 -0.021650 -0.019128
-0.212071 0.094143 -0.021708
0.303757 -0.091665 -0.018465
0.106201 -0.079475 -0.032992
-0.455665 -0.011519 0.021354
0.213499 -0.014345 0.028168
-0.376658 0.043208 -0.015493
0.252547 -0.142575 0.031443
-0.112970 0.113096 -0.028636
0.063255 -0.107471 -0.008035
0.104960 0.138100 0.012395
0.039729 0.033336 0.014122
0.503197 -0.032313 -0.011501
0.185532 -0.021522 -0.004766
0.171573 0.128497 -0.003744
-0.375164 -0.072498 0.025874
0.424690 -0.052858 -0.028803
-0.033647 0.113139 0.026547
-0.460240 0.030661 0.008662
0.469848 0.010035 0.024059
-0.474209 -0.009121 0.023610
0.259901 0.061497 0.019815
-0.439738 -0.074751 0.008814
-0.263488 -0.143950 -0.003344
-0.141494 -0.095349 -0.022686
-0.030900 0.114000 -0.018345
-0.002549 -0.144203 -0.004671
0.275607 -0.006715 -0.019211
-0.186894 -0.014144 0.010850
0.149893 0.103061 -0.016070
-0.462236 0.011986 0.026973
-0.111060 -0.098116 -0.020317
0.276234 0.099285 0.016222
0.111994 0.133192 0.021350
0.368415 0.034453 -0.019960
-0.117872 -0.073808 0.009725
0.354669 -0.123117 0.019976
0.010798 -0.030877 -0.028927
-0.184501 0.126750 0.013802
0.137652 -0.109688 0.016660
0.430970 -0.051515 -0.017678
-0.416895 -0.053121 -0.025738
-0.149773 0.131271 0.011337
-0.310025 -0.118373 0.027044
-0.100864 0.077828 -0.016144
0.289972 0.084240 -0.023086
0.128128 0.090441 -0.018563
0.390194 -0.020741 -0.011517
0.046527 -0.113626 -0.023148
-0.103603 -0.143688 -0.018196
-0.136180 0.069141 0.020225
-0.078102 -0.001676 -0.026552
-0.389770 -0.095340 0.024767
-0.216138 0.115030 -0.002287
0.313486 0.055147 -0.013546
-0.207088 0.092733 -0.018966
0.285861 -0.011093 0.010057
-0.378447 -0.117256 0.003394
-0.409633 -0.006780 0.025999
0.269004 -0.144843 0.019552
-0.482784 -0.041575 0.027704
-0.335705 0.004740 -0.018951
-0.164395 0.034389 0.017504
-0.185549 -0.067908 -0.022499
-0.194186 -0.127612 0.027646
0.041980 -0.048163 -0.024382
-0.146741 0.042363 0.008823
-0.330418 0.006256 0.016437
-0.085646 -0.012529 0.021314
-0.076133 0.141557 -0.022479
-0.453068 -0.007634 -0.017490
-0.401745 0.011368 0.021935
0.152789 0.073102 0.031804
-0.398657 -0.050930 -0.015191
-0.271377 0.107074 -0.004258
0.020017 -0.052656 -0.030893
0.450911 -0.030882 -0.022916
0.119881 -0.085220 0.006931
0.107030 0.135767 0.022391
0.040911 0.027592 0.021407
-0.130044 0.143754 0.004939
-0.398042 0.051143 -0.015516
0.402755 -0.041669 -0.018603
-0.215942 -0.100850 -0.017403
-0.439833 0.029788 0.009357
0.257968 0.103223 -0.005116
-0.146061 -0.138946 0.020848
-0.105313 0.035412 0.016099
-0.028136 0.079730 -0.017631
0.078319 -0.066132 0.008189
0.235794 0.089693 -0.023978
-0.316215 -0.142424 -0.018036
-0.164021 -0.022317 -0.025910
-0.257988 -0.007858 0.025153
-0.043987 0.152675 -0.007423
0.242913 -0.003628 -0.020283
0.316692 -0.150060 0.001085
-0.080848 0.024413 0.011562
0.399128 0.019085 -0.021133
-0.194679 0.119650 0.028229
0.095964 0.128114 0.019286
0.295452 -0.151422 0.004400
0.381895 -0.003991 -0.014556
0.071775 0.026585 0.003978
-0.091990 0.089847 -0.018693
0.268314 0.059087 -0.014078
0.347023 0.005645 -0.018837
0.040890 0.033353 -0.003505
0.323386 0.004711 -0.016686
0.030763 0.029533 0.015515
0.088889 -0.069240 -0.002450
-0.246082 0.108521 -0.013876
0.467161 -0.034785 -0.023681
-0.093805 -0.053460 0.013558
-0.008226 -0.078941 -0.001711
-0.011868 -0.093785 -0.004102
-0.151909 -0.059385 0.020422
-0.237314 -0.001255 0.009294
0.186511 0.050492 0.013684
0.330004 0.003418 -0.003286
0.065766 0.129042 -0.016088
-0.416430 -0.027035 0.024335
-0.162160 -0.023824 0.016370
0.495953 -0.026887 -0.014865
-0.222835 -0.131482 -0.014391
-0.117744 -0.061422 -0.016217
-0.318777 0.077223 -0.019011
-0.088702 -0.122169 -0.030634
0.186343 -0.069331 0.021456
-0.170176 0.106673 0.018277
0.014144 -0.017499 -0.011421
-0.205244 -0.124088 -0.021313
-0.200703 -0.011935 -0.010105
-0.325558 0.012792 0.016177
-0.079655 0.133196 0.016409
-0.189738 0.012228 -0.022019
0.004205 -0.004700 -0.027031
0.293357 -0.105197 0.009886
-0.210360 0.094352 0.020871
0.195817 -0.075498 -0.001184
0.045102 -0.101333 -0.006066
0.287751 0.070484 -0.021236
0.395395 0.006137 -0.022208
0.404393 -0.050248 0.018724
-0.064438 0.134167 -0.016440
0.053816 -0.070929 -0.016105
0.213663 -0.104767 -0.016197
-0.061239 0.097344 -0.017663
-0.480128 -0.060021 -0.005144
0.081564 0.091667 -0.018269
0.223269 -0.147659 0.002336
0.277346 0.022945 -0.023657
-0.406186 -0.004827 0.020230
-0.400283 -0.012017 0.013300
0.441744 -0.073598 -0.022681
-0.434527 -0.080484 0.017593
0.262105 0.103692 -0.023264
-0.262283 -0.142489 -0.010365
-0.238890 0.104391 -0.026927
-0.095798 0.113867 0.023813
-0.097170 -0.128381 -0.022680
-0.239234 0.020150 -0.012726
0.316210 0.050064 -0.013598
0.099449 -0.134757 -0.005859
0.417994 -0.092268 -0.007757
0.059106 -0.068491 -0.011733
0.480289 -0.001663 0.018744
-0.265510 -0.120439 0.028602
-0.284452 -0.003504 -0.011067
-0.141736 -0.146991 -0.022429
0.205680 0.072196 -0.016181
0.006586 -0.119473 -0.013996
-0.098645 -0.054152 -0.005476
-0.079091 0.035210 -0.006754
-0.145381 0.077297 0.011362
0.118653 -0.103795 -0.024109
-0.346547 -0.134809 0.018978
-0.253504 -0.112107 0.026392
0.114296 0.099056 -0.016530
0.268528 0.101620 0.018502
0.182208 0.030802 -0.011798
0.001275 -0.014068 -0.023826
0.218793 -0.087219 0.005975
-0.360754 -0.113397 -0.026115
-0.008652 0.023244 0.019948
-0.154881 0.076400 0.018604
0.229764 0.102101 0.024162
0.344399 -0.084972 0.021966
0.340485 0.075225 -0.000770
0.428019 -0.085066 0.020002
-0.346404 -0.069948 -0.013070
0.410152 0.037733 -0.021116
-0.070718 -0.044897 0.014868
-0.505419 -0.034368 0.006434
0.330005 -0.094426 -0.013214
0.089999 0.012633 -0.015488
0.121604 0.080489 0.001378
-0.156268 0.019432 0.019737
0.223879 -0.008398 -0.024308
0.392636 0.023805 -0.017998
-0.243304 0.020962 -0.020801
0.179192 0.084459 -0.018962
0.190815 -0.119174 0.024590
0.132991 -0.126255 0.000473
-0.275431 0.064258 -0.012420
0.226001 0.050439 0.016213
-0.185245 -0.068004 0.019871
0.072560 0.088317 -0.028781
-0.386443 -0.053842 -0.022620
-0.259750 0.077066 0.022053
0.028476 -0.087554 -0.023128
-0.389347 -0.030471 -0.000454
0.348101 -0.055690 -0.021397
-0.311799 0.047744 0.018300
-0.385030 0.037044 -0.019133
0.433609 -0.048429 0.029358
0.299948 -0.003021 -0.020794
-0.435079 -0.012620 0.017153
0.004470 0.111440 0.022367
0.479888 -0.049984 -0.008134
-0.145392 0.077903 -0.013722
0.111263 0.143264 0.004428
0.027576 0.027514 0.016882
0.406366 -0.071550 0.022071
0.388357 -0.096800 0.022346
-0.313828 -0.135124 -0.013030
-0.420712 0.040701 0.000405
0.270832 -0.116938 -0.025064
-0.249356 0.059116 -0.021587
0.432831 -0.047077 0.031393
-0.054529 -0.142918 -0.009982
0.339632 0.061778 -0.024470
-0.188426 0.063175 0.003967
0.260005 0.096868 0.018686
0.087819 -0.061792 0.016341
-0.194582 0.050337 0.009824
0.228284 0.061393 -0.017884
-0.230914 0.100901 -0.019734
-0.418157 -0.036367 0.015152
0.067110 0.097161 0.028519
0.078787 -0.095203 -0.018456
-0.014200 0.103970 0.020709
-0.347504 -0.054023 -0.010598
0.253368 0.018028 0.019235
-0.080375 -0.083742 -0.024594
0.192775 -0.122832 0.015985
0.352374 0.087400 0.018058
0.245105 -0.124815 -0.021495
0.152561 -0.144660 -0.015371
-0.268699 -0.140714 -0.025980
-0.259247 -0.004557 -0.023514
-0.170574 -0.125892 0.021384
0.214515 -0.121330 -0.018421
0.104614 -0.045890 0.017390
-0.388571 -0.077573 0.022855
-0.286538 -0.085718 0.015737
0.412488 -0.072980 0.017458
-0.133689 0.001853 0.022158
0.240980 0.117239 0.003477
-0.187989 0.105712 0.025337
-0.471313 -0.058493 -0.002324
-0.421671 -0.017870 -0.011852
-0.108016 -0.086820 -0.016690
0.260957 -0.109709 -0.025986
-0.275925 0.085340 -0.022688
-0.290221 0.039794 0.015597
0.113100 -0.021199 0.017252
0.092611 0.041949 0.008170
0.328206 -0.080490 -0.017796
-0.161254 0.024458 -0.023656
0.184088 -0.111187 0.011677
-0.027064 -0.023933 -0.020027
0.125188 -0.088475 -0.008948
0.118085 -0.075713 -0.015848
0.010487 0.139762 -0.018368
0.043910 -0.084955 -0.006974
-0.425597 -0.077044 -0.003839
-0.208219 -0.155919 -0.017876
-0.215929 -0.139190 -0.024521
-0.000842 0.106410 -0.014539
0.361962 -0.078634 -0.012020
-0.416455 -0.073859 0.025568
0.335691 0.033945 0.015109
0.199243 -0.081843 -0.000284
0.000216 0.110979 -0.027243
0.098158 0.006140 -0.026427
0.034757 0.079271 -0.001595
0.040790 -0.018101 0.015828
0.129576 0.130908 0.020813
-0.361337 0.065478 -0.012038
-0.197454 0.129166 0.020616
-0.240234 -0.152553 -0.009382
0.117589 -0.050901 0.023977
-0.016305 -0.071016 -0.000409
0.167821 0.073557 -0.017215
-0.058670 0.032383 0.022423
0.167959 0.133312 -0.008037
0.203761 -0.127959 -0.024189
0.375454 -0.000372 0.003422
-0.334926 0.044920 -0.023168
0.465684 -0.063239 0.019818
0.012977 -0.069788 0.001032
-0.074488 0.025871 -0.008711
-0.133180 0.130016 -0.028171
-0.091834 -0.049930 -0.016096
0.136901 0.129164 -0.006154
-0.278321 0.006560 -0.019663
-0.055035 0.024156 -0.010108
0.342428 0.049476 -0.013121
-0.031656 0.027457 0.005113
-0.092288 -0.112530 -0.003264
0.180707 -0.057737 -0.002136
0.095256 0.023225 -0.019679
0.061802 -0.049427 -0.021773
0.067717 -0.113123 -0.007250
-0.169203 0.050104 0.012354
-0.147790 -0.142780 -0.012586
-0.236213 -0.145415 -0.005815
-0.051795 0.100049 0.003823
-0.073161 -0.020344 0.016972
-0.178570 0.039853 -0.005933
0.295565 -0.142881 -0.002619
-0.382094 0.053471 -0.015800
0.131248 -0.084204 -0.024045
-0.254778 -0.082073 -0.019455
-0.046199 -0.126195 -0.011672
0.016632 0.084098 0.001088
0.201724 -0.087621 0.000279
0.422118 -0.004225 0.015518
-0.112232 -0.136705 -0.008944
-0.378119 0.004433 -0.012180
0.067822 -0.015892 0.015037
-0.324926 0.085374 -0.012614
0.041377 -0.025179 -0.017052
-0.050608 -0.136694 -0.015257
-0.165786 0.031884 -0.026129
0.312371 0.002048 -0.023077
0.260454 -0.002166 -0.004922
-0.215908 -0.147361 0.007820
0.055385 -0.025179 -0.022169
0.118291 -0.074667 -0.011168
0.332724 -0.117414 -0.024470
-0.235598 0.081985 -0.009372
-0.470831 0.001640 0.000513
0.290500 0.001429 0.018007
0.300717 0.093727 -0.008280
0.447899 -0.062858 0.019550
0.377177 -0.040937 -0.020079
-0.252235 0.086381 -0.020845
0.131546 -0.109928 -0.002772
0.090208 -0.064818 -0.029040
-0.167218 0.129145 0.000427
-0.466682 0.000662 0.019363
-0.163858 0.013196 0.024978
0.398402 0.049462 -0.004548
-0.187386 0.007354 -0.021879
-0.186673 0.014977 0.027869
-0.139069 -0.038648 0.022441
-0.117049 0.134534 0.035350
0.094618 0.116412 -0.028138
-0.025515 0.087301 0.024165
-0.086619 -0.124437 -0.017013
0.167422 -0.098887 -0.021480
-0.009543 -0.023485 0.022833
-0.140514 -0.115282 0.018521
0.069459 0.029919 0.004820
0.173290 0.127253 -0.027365
-0.207554 -0.142024 -0.016580
0.079477 -0.140179 -0.020665
-0.017560 -0.143049 -0.006750
0.161352 0.103777 -0.028902
0.271240 -0.139174 -0.024178
0.231989 0.055936 -0.015846
-0.269044 0.085403 0.016255
0.197791 -0.071801 0.004445
0.046404 -0.099035 -0.011575
-0.198624 0.090448 0.020824
0.161185 -0.126437 -0.018994
0.269601 -0.082553 -0.000326
0.131638 -0.137142 0.007620
-0.065790 0.125200 -0.016533
-0.149286 -0.104170 -0.009170
-0.171760 -0.073341 0.017993
0.160232 0.128161 -0.006185
0.497548 -0.005258 0.005059
-0.247884 -0.150117 0.006133
-0.110358 -0.081599 -0.006474
-0.129338 -0.148093 -0.002354
-0.127166 0.020686 0.022613
-0.194035 -0.122741 0.021041
0.204596 -0.022185 0.005808
-0.198092 0.065754 0.008140
-0.127080 -0.144350 0.003836
-0.265323 -0.088970 0.005826
0.400864 -0.072304 0.025816
-0.207969 0.062863 -0.005958
-0.065478 0.001946 -0.015910
-0.056118 0.111909 0.024139
-0.133091 0.034255 0.024541
-0.194976 -0.089746 -0.001559
0.227389 0.063773 0.015199
-0.178589 -0.119673 -0.019584
0.184495 -0.101724 -0.018823
-0.113378 -0.064894 -0.015565
0.120267 0.036199 0.017274
0.100160 0.102106 -0.028219
-0.248483 -0.145585 0.000097
0.159359 -0.037526 -0.028189
-0.074401 -0.109639 -0.015708
-0.095882 0.132795 -0.014690
0.227120 0.033208 0.016482
-0.072337 -0.110901 -0.015944
0.148293 -0.021519 -0.026316
-0.119254 -0.142272 -0.009099
0.306873 0.049905 -0.025917
0.150314 0.001396 0.021163
-0.157934 -0.050594 0.025616
-0.435308 -0.009755 0.013395
-0.349610 0.008447 0.017357
0.251757 -0.090494 -0.008638
-0.055853 -0.125192 -0.020985
0.185599 0.066302 0.011230
0.341014 -0.130063 0.018324
-0.001239 0.089813 0.001751
-0.349851 -0.058977 -0.007208
0.220433 -0.107290 -0.019139
-0.337125 -0.116557 0.019812
0.122065 0.135811 0.008643
-0.020210 -0.151951 -0.007925
0.306671 -0.139062 0.013216
0.201541 -0.142156 0.017470
0.060324 -0.057760 0.005780
-0.047618 0.092020 0.010969
0.337946 -0.005781 -0.000592
0.055459 -0.113411 -0.025426
-0.073492 -0.065759 -0.002065
0.086829 -0.129836 -0.023870
0.153110 0.106975 -0.021055
-0.396083 0.042480 -0.014966
0.269596 0.046446 -0.017794
0.048625 -0.038438 -0.019437
0.340656 0.033856 -0.027086
-0.474732 -0.051006 0.018382
-0.044810 0.089698 -0.010764
0.160992 0.099453 0.018992
0.409225 -0.033457 -0.006509
-0.201739 -0.116953 0.018399
-0.443119 -0.024989 0.014339
-0.371139 -0.042608 0.002714
-0.188953 -0.130095 0.016426
0.127983 -0.114521 0.015569
0.227967 -0.099680 -0.017607
-0.160556 -0.124039 0.016871
0.015372 0.107486 -0.017696
-0.029137 0.113128 0.033941
0.115129 -0.110054 -0.023484
0.265324 0.021334 0.017835
0.013969 0.109638 -0.024814
-0.202660 0.072559 -0.022119
0.098012 0.117924 0.015639
-0.300829 0.085583 0.010633
0.075493 0.094874 -0.024307
0.198547 0.096933 -0.018202
0.446137 -0.068730 0.001715
0.237297 0.051956 0.013319
-0.294738 -0.002707 -0.020607
0.041325 -0.092759 -0.001951
0.045623 -0.114337 -0.010811
0.266554 0.098575 -0.018999
-0.488744 -0.043035 0.007770
0.385591 -0.004068 -0.008727
0.206753 0.007016 0.011458
0.033155 -0.030517 0.018903
-0.282247 -0.103851 0.021674
-0.496140 -0.047744 0.007360
-0.503824 -0.021187 -0.018277
0.212780 0.102577 -0.012151
0.158548 0.102721 -0.018043
-0.103267 0.037443 -0.021131
0.250582 -0.091086 -0.004281
-0.006262 -0.099151 -0.019139
-0.461458 0.011761 0.011104
-0.110253 -0.037717 0.024673
-0.232866 0.119993 0.016230
0.096581 0.084510 -0.011505
-0.075990 0.028265 -0.007182
-0.245465 0.010915 0.021441
-0.015555 0.105347 0.020343
-0.105262 0.137341 -0.008375
0.386228 0.057772 -0.004711
-0.067162 0.116197 -0.018445
-0.105010 0.083424 -0.004142
0.078409 0.087591 -0.020020
-0.128130 -0.135063 -0.001571
-0.494855 -0.027492 -0.019126
0.393765 -0.005761 0.016767
0.102501 0.035099 0.013865
-0.031476 -0.115081 -0.018150
0.110286 -0.025498 -0.023771
0.331867 -0.136094 0.029049
0.174703 -0.138312 0.014267
0.198098 0.020306 -0.021660
-0.133033 0.076280 -0.011688
-0.417122 0.029574 -0.022999
-0.280443 -0.147085 -0.009568
0.212150 0.079075 0.018875
0.280657 0.083419 -0.024033
-0.190771 -0.118770 0.024524
-0.138889 -0.073456 0.018893
-0.046794 -0.100930 -0.017150
0.012548 0.121026 0.032824
-0.166878 0.017739 -0.017817
-0.028428 0.008701 -0.024427
-0.009191 -0.061729 0.019202
-0.267723 0.000632 -0.017116
-0.028911 0.135382 0.015909
-0.300833 -0.149731 -0.001311
-0.058245 0.089713 -0.022908
-0.103810 -0.091001 -0.019292
0.070842 -0.071038 0.001568
0.084950 -0.096043 -0.008065
0.210993 0.033983 0.027987
-0.096416 -0.031109 0.017237
-0.238285 0.005562 -0.019770
0.384977 0.019287 0.017672
0.346338 -0.067821 -0.012652
-0.238375 0.019886 -0.017297
0.380356 0.027748 0.010745
0.487790 -0.053590 -0.014717
-0.462640 -0.056300 0.016931
-0.326064 0.029558 0.024118
0.089450 -0.128995 -0.017123
-0.058648 0.009759 -0.018864
0.155401 0.106161 -0.020001
0.094900 0.030472 -0.015126
-0.077065 0.098177 -0.011062
0.264966 -0.001422 -0.002953
-0.032305 -0.143348 -0.008606
-0.359023 -0.076230 0.019372
0.055669 -0.003275 0.020118
-0.177240 0.033157 0.008737
0.133488 -0.003369 -0.013044
-0.333976 -0.091969 0.018110
0.472338 -0.050507 0.018202
-0.170299 -0.054471 0.029160
0.237600 -0.110933 0.026721
-0.058886 -0.134109 -0.004426
0.196660 -0.094216 0.016296
-0.082814 -0.107878 -0.010249
-0.156386 -0.066220 0.016194
-0.236110 0.106331 0.021902
-0.132553 0.030247 0.022984
-0.164559 0.079710 -0.012086
0.009957 -0.019001 0.016678
-0.033852 0.088532 0.012372
0.113690 -0.019361 0.013782
-0.003955 0.140311 -0.006791
0.107628 -0.074367 -0.013684
-0.034413 0.110700 -0.029851
0.446018 -0.070818 -0.009131
-0.168350 0.133024 -0.017916
-0.048061 -0.086832 -0.002336
-0.298293 -0.148307 -0.018274
-0.353437 -0.123306 0.015096
-0.026363 0.109759 -0.026558
-0.495608 -0.032628 0.010355
0.102233 -0.067312 -0.007375
0.158963 -0.043344 0.018087
-0.190365 0.036290 0.013039
-0.014891 -0.032221 0.019062
-0.068066 -0.103935 -0.003734
0.323568 0.016846 0.018653
-0.145711 -0.141448 -0.017297
-0.263804 -0.090344 -0.009413
0.227359 -0.140595 0.023276
-0.241076 -0.147054 0.020514
-0.088110 0.002296 0.018852
-0.255207 -0.135788 0.024673
0.182595 0.090897 0.029261
-0.343194 0.017538 -0.020051
0.436300 -0.073602 0.013435
0.062748 -0.009850 -0.024178
0.239699 -0.120707 -0.014951
-0.079556 -0.054044 0.009718
-0.117388 -0.068372 -0.020476
0.402736 0.028225 -0.019737
-0.007013 -0.022648 0.025301
-0.221097 -0.104815 -0.026109
0.081185 -0.115884 -0.010102
0.057150 -0.135157 -0.020857
-0.295467 -0.117499 -0.025358
0.085151 -0.027916 -0.018035
-0.157094 -0.052488 -0.021665
-0.466753 -0.037197 0.027796
-0.032529 0.095043 0.021533
0.297747 0.058322 -0.026478
-0.082019 0.125946 -0.016340
0.103403 0.120171 -0.031320
-0.080849 -0.139783 -0.003400
-0.154229 0.014113 -0.018114
-0.039431 -0.102585 -0.018291
0.242020 -0.004551 0.019860
0.030513 -0.053491 0.001220
-0.022581 -0.029345 -0.017692
0.079521 -0.094519 -0.014056
-0.008132 0.146216 -0.007143
0.061549 -0.114225 -0.007630
-0.046432 0.092628 -0.014330
-0.258741 0.001586 0.016549
0.064864 0.111542 -0.016880
0.271309 -0.145221 -0.005281
-0.365529 -0.083650 0.018530
0.307735 0.088228 0.017858
-0.185735 0.021698 0.015258
-0.105914 -0.063588 0.010493
0.252974 -0.006026 0.002144
0.043231 0.089349 -0.022844
-0.012441 -0.093417 -0.019380
-0.472800 -0.015554 -0.025045
-0.017360 -0.103914 -0.005660
-0.065180 -0.058994 -0.036026
0.004440 -0.073727 -0.016836
0.240704 -0.095290 0.024584
-0.394881 -0.081934 0.021464
0.178408 0.017731 -0.022656
-0.029845 -0.094809 -0.003307
-0.143996 0.029300 -0.012723
-0.118097 0.041373 -0.010368
0.087824 -0.059267 -0.020698
0.072091 -0.058561 -0.021596
-0.154705 -0.145535 0.008165
-0.150676 -0.012673 0.013946
0.048738 -0.113193 -0.028141
0.020291 -0.147841 -0.020972
-0.347934 -0.056361 -0.027579
0.024446 0.105794 -0.030763
-0.042196 -0.121485 -0.013197
-0.328650 -0.143218 -0.007874
0.137353 -0.141288 -0.018481
-0.384540 -0.004103 0.030474
-0.277933 0.034618 0.021355
-0.164823 -0.031886 -0.020252
-0.320037 0.082614 0.026043
0.193041 0.062782 -0.013221
0.326806 0.043207 0.025694
0.291794 0.036878 0.024717
-0.023527 -0.142330 -0.005364
0.115295 -0.060924 0.017574
-0.131617 -0.095289 -0.023210
-0.067951 -0.141983 -0.008525
0.297128 0.000805 -0.000044
-0.351702 -0.128124 -0.021291
-0.203800 0.120747 -0.002343
-0.492776 -0.021457 0.026010
0.050025 0.083286 0.006461
-0.365640 -0.075485 -0.028369
-0.153100 0.014088 0.028256
-0.172955 0.132136 -0.004541
0.356962 -0.063644 0.011637
0.334248 0.030456 0.018347
0.000600 -0.094768 -0.009081
-0.002655 -0.115721 -0.022535
-0.094060 0.123111 -0.026300
-0.129200 0.109686 0.021135
0.441757 -0.029685 -0.024936
-0.218207 -0.006015 -0.021961
-0.318632 -0.126067 -0.020055
-0.226459 -0.097710 -0.020130
0.338574 -0.138165 -0.012838
0.006448 -0.069431 0.017349
-0.122419 -0.006675 -0.021912
0.347910 0.024136 0.015437
-0.282587 -0.146430 0.015959
0.383406 -0.061810 -0.013167
-0.130894 0.129978 -0.015601
0.127694 0.137255 -0.020161
0.075728 -0.090524 -0.001024
-0.002956 0.097794 0.021230
0.121212 -0.018810 -0.019459
0.055385 -0.112942 -0.027600
-0.049398 -0.029984 0.017395
0.383917 0.047918 0.023237
-0.370587 0.047577 0.017650
-0.207611 -0.122975 0.023135
0.180650 0.085131 0.022271
-0.135528 0.106320 -0.019426
-0.265143 -0.141915 0.024180
0.167527 -0.045580 -0.014486
-0.184244 0.043337 0.003016
-0.178488 -0.057589 0.019894
0.453640 0.016278 0.010821
0.069371 -0.085780 -0.004877
0.204479 -0.150858 -0.033696
-0.348477 -0.129975 0.021527
0.476379 -0.046065 0.027289
-0.222696 0.009131 0.015577
0.159074 0.014636 0.019497
0.102953 0.089055 0.021981
0.207183 -0.086814 0.027174
0.399621 -0.015092 -0.019133
0.103872 -0.049383 -0.021082
-0.492501 -0.049460 -0.012350
0.203841 0.119208 -0.023775
0.396439 0.042753 0.020947
0.063453 0.114813 -0.026494
0.173510 0.117752 -0.012959
-0.071739 -0.132728 -0.019141
-0.148205 0.090907 -0.023845
0.330387 0.079657 -0.020197
0.306947 0.071555 -0.026986
-0.037239 0.142087 -0.008432
0.163551 -0.072226 0.018411
0.120906 0.003591 -0.010048
-0.366736 -0.063094 -0.013893
0.114111 -0.053285 -0.013201
0.249192 0.085197 -0.024372
0.494007 -0.038676 -0.020160
0.410239 -0.088293 0.010498
0.238349 0.071022 -0.022200
0.091032 -0.029518 0.025649
-0.195840 0.115678 0.031780
-0.210880 -0.108034 -0.024657
-0.047642 0.082054 -0.004680
0.391903 0.040849 0.011462
-0.045224 0.094832 -0.020372
0.363597 0.076039 -0.011241
0.091395 0.012880 -0.020653
-0.077023 -0.054757 0.009203
-0.434275 -0.005400 0.019191
0.419716 0.012474 0.016413
-0.094671 -0.095435 -0.002127
-0.154748 0.128124 -0.015690
0.325635 0.061381 0.022588
-0.210290 -0.081181 0.008607
-0.011686 -0.070716 -0.013542
0.064365 0.146432 -0.008609
0.129411 0.073796 -0.005556
0.485535 -0.025684 -0.015387
-0.235042 0.001244 -0.027536
-0.097189 -0.040063 -0.024147
-0.255749 -0.012576 -0.000687
-0.292106 0.078436 0.014462
0.405548 -0.069385 -0.023561
0.457185 -0.045551 -0.014490
0.157153 -0.077964 0.018288
-0.126488 -0.036307 -0.014864
0.135230 -0.049057 0.017617
-0.188843 -0.080306 0.009159
-0.259841 -0.109401 0.014405
-0.424562 0.008132 0.030141
0.180637 0.007487 -0.025595
0.092028 0.124606 0.016493
-0.312906 0.059135 -0.016670
0.340684 0.021817 -0.020660
0.169320 0.112496 0.024166
-0.315587 0.058686 0.011921
-0.429597 0.008245 -0.024773
0.021427 -0.111024 -0.027406
0.288397 -0.109733 -0.021762
0.186634 0.128406 0.009182
-0.408370 -0.029336 -0.003044
0.413088 -0.029859 -0.017480
-0.365078 -0.124743 0.022369
-0.317236 -0.103608 -0.014007
-0.182884 0.031013 -0.019245
0.233157 -0.106083 0.013331
-0.438465 -0.005670 -0.015722
0.224358 -0.006678 -0.024014
0.430719 -0.088182 -0.000780
0.251554 -0.022494 -0.000954
-0.097254 0.084972 0.004821
0.321864 -0.093092 0.023053
-0.033609 0.090901 0.010755
0.348291 0.053974 0.021929
0.408095 -0.050583 0.022755
-0.438904 0.006512 -0.011988
-0.227420 -0.092183 0.024402
-0.383598 0.007884 0.030114
0.244754 -0.022455 -0.004258
0.050223 0.024724 -0.015289
-0.177352 -0.058197 0.018874
0.063792 -0.065094 -0.019781
0.358089 -0.050418 0.015597
-0.144815 -0.145008 -0.021135
-0.460227 -0.057529 -0.022381
0.114562 0.132964 -0.014694
-0.097537 -0.099784 -0.026154
-0.226612 0.044120 0.018181
-0.070477 0.022091 0.007776
-0.385456 -0.004045 0.012625
-0.108984 0.033275 -0.001039
-0.197066 -0.089590 0.007884
-0.051928 0.145921 0.019679
-0.411109 -0.034235 -0.000031
-0.212213 0.069104 0.018479
-0.247710 0.098302 0.027139
-0.157559 0.112576 0.017456
-0.297714 0.084001 -0.016051
-0.050172 -0.074802 -0.020761
-0.056467 -0.131345 -0.006356
0.440183 -0.055182 -0.021637
0.086950 0.024094 0.012854
-0.233336 0.072464 -0.017641
0.343477 0.063647 0.023876
0.225795 -0.087676 0.003827
-0.047578 -0.128996 -0.021447
0.238357 0.107458 0.018310
-0.346190 -0.133330 -0.016933
-0.210091 -0.002141 -0.020260
-0.238233 -0.007887 -0.017524
0.335846 -0.144909 0.009765
0.268271 0.087711 0.023224
0.434916 -0.034763 0.021549
0.307076 -0.139761 0.008251
0.183898 0.109280 -0.034362
-0.157546 -0.112251 0.016517
-0.332043 -0.086311 -0.016156
-0.182134 -0.065476 -0.019401
0.192146 -0.073145 -0.020743
0.359130 -0.069017 -0.019833
0.125450 0.142016 -0.027181
-0.256865 -0.140561 -0.001064
0.061837 0.082031 0.011776
0.327770 0.080997 0.002872
-0.088083 -0.039257 0.017736
0.238982 -0.002892 0.014271
-0.044493 -0.020938 0.017709
0.281368 -0.095561 -0.033421
-0.447661 -0.072933 -0.009934
0.367906 -0.049753 0.006921
0.015156 0.144608 -0.016732
0.092012 -0.011261 -0.027186
0.001648 -0.148270 -0.014178
-0.165291 -0.032366 -0.016623
0.008845 -0.147103 -0.016850
-0.130358 0.117359 -0.025686
-0.194975 0.086021 0.021694
0.174719 0.117772 0.017406
-0.337016 0.013595 -0.016382
0.225102 0.002422 0.025101
-0.081800 -0.113355 -0.026479
0.243587 -0.008115 -0.003743
0.425125 0.038714 0.008389
0.127462 0.097792 -0.020586
-0.217951 0.087217 -0.022988
0.431561 0.004210 -0.019917
-0.257109 0.090639 0.023114
0.372104 -0.087522 0.017419
0.229772 -0.016859 0.021410
0.134925 -0.037305 -0.019598
-0.250180 0.001929 -0.022226
-0.177604 -0.108560 -0.020524
0.192800 -0.142566 -0.012411
0.354159 -0.067352 -0.011356
-0.293337 0.038822 -0.012430
-0.104714 -0.054218 -0.012302
0.365990 0.024653 0.019863
0.206354 -0.149544 -0.013449
0.246425 0.062859 -0.020960
0.057825 0.088248 -0.012998
-0.219158 0.037227 -0.031244
-0.199838 -0.088429 -0.014209
-0.321672 0.032822 -0.027219
-0.008430 -0.082411 -0.016573
0.098588 0.081203 0.021578
-0.049847 0.136975 0.018829
-0.223941 0.077263 0.025815
-0.276072 0.026805 0.029176
-0.096252 -0.078191 -0.020445
0.029242 -0.030343 -0.022474
-0.146571 -0.134130 -0.001900
0.188806 -0.020633 -0.003515
0.069385 0.126001 0.022284
-0.173649 -0.048455 -0.004996
0.194701 -0.136138 0.002803
0.424636 -0.063780 0.018833
0.320017 -0.070601 -0.010912
0.000178 0.031098 0.014490
0.141598 0.007064 0.026825
0.153870 0.067827 -0.023432
-0.262430 0.104860 0.017718
0.318804 0.004030 0.014316
0.162108 -0.051326 -0.022232
0.145776 0.084691 -0.019459
0.283404 -0.081284 0.013341
-0.121076 -0.126582 -0.004744
-0.481508 -0.057657 0.023786
-0.198457 -0.142297 -0.004864
-0.223074 -0.000056 -0.013077
0.300418 0.000344 -0.013622
-0.414583 0.015132 0.013966
-0.006814 -0.090860 -0.022189
-0.104665 -0.088002 -0.024911
-0.278703 0.101424 0.011923
0.417142 -0.077675 -0.028302
-0.238131 0.000271 -0.021340
-0.245937 0.068435 -0.017830
-0.186174 -0.103259 0.023617
0.121664 -0.053344 0.024415
-0.352528 -0.094755 -0.028360
-0.247254 -0.104895 0.023686
-0.297628 0.049236 -0.021904
-0.165417 -0.011474 -0.028391
0.037694 0.107233 -0.020196
-0.113979 0.093156 -0.009246
0.232519 0.069567 -0.018182
0.424852 -0.041356 -0.015648
-0.343809 0.001913 0.006819
0.126202 0.132203 -0.013515
-0.255553 -0.013170 -0.020756
0.410231 0.004152 0.011126
-0.157773 -0.150304 0.000614
0.086672 -0.023001 -0.017319
-0.096065 -0.090033 -0.009421
-0.121487 -0.111687 -0.023430
-0.493933 -0.016304 -0.017289
0.406518 -0.009916 -0.017259
0.472959 -0.026370 -0.014398
0.261175 0.093477 0.018936
-0.182983 0.067903 0.007764
-0.034323 0.024804 0.014719
0.280818 0.020501 0.025492
0.276155 0.090991 0.025211
0.249692 -0.129264 -0.028544
0.040697 0.105723 -0.022170
0.198102 -0.151845 0.009170
0.317900 0.055904 0.021874
-0.091487 -0.099405 -0.016224
-0.278387 -0.149746 -0.011444
-0.172298 -0.011007 -0.015669
-0.054854 -0.063491 -0.005518
-0.240395 0.102524 -0.024388
0.072725 0.030518 -0.016131
0.127110 -0.058188 0.021141
0.092917 0.097290 0.016048
-0.037240 -0.116588 -0.003178
0.074105 -0.132651 -0.006590
0.047342 -0.139419 -0.013195
0.320935 0.012244 -0.015557
-0.105523 -0.075006 -0.021732
0.125559 0.130463 0.021927
0.077792 0.127063 0.011912
-0.287736 -0.139729 0.023686
-0.120853 -0.016234 0.020727
-0.288611 0.094623 -0.017620
0.306188 0.091136 0.006419
0.161292 0.033355 -0.025219
0.109088 0.033295 -0.003442
-0.047121 0.138410 0.000274
-0.376410 -0.003172 -0.011848
-0.058909 -0.017350 -0.027722
-0.428976 -0.028638 -0.019354
0.469355 -0.045952 -0.011985
0.240168 -0.083066 0.006652
-0.335185 -0.112799 -0.027376
-0.478683 -0.012658 0.023018
-0.365615 0.009773 0.012602
-0.326394 -0.082112 0.030831
0.334280 -0.008810 -0.014563
0.119580 -0.055017 -0.018332
0.016652 0.131140 -0.028554
-0.183786 0.125739 0.009435
0.194498 -0.115244 0.022765
-0.280265 -0.112289 0.019333
0.015668 -0.098201 -0.009533
0.236147 0.057629 -0.020299
0.202387 -0.094663 -0.010774
-0.096656 0.028199 -0.008987
-0.499052 -0.013000 0.007197
0.384383 -0.003970 -0.001760
0.009973 0.128654 0.023793
0.202780 -0.135045 0.002435
0.243487 -0.114447 -0.027382
-0.134640 -0.062563 -0.023506
-0.084861 0.033328 0.005911
0.148926 0.032822 -0.015627
0.185491 0.026877 0.020227
0.008657 0.118740 0.026257
-0.152653 -0.103508 -0.020426
-0.272804 -0.136921 0.028410
-0.211527 -0.086815 0.012043
0.422061 -0.067675 -0.016906
0.138707 -0.040814 -0.026819
-0.253545 -0.151778 0.018411
0.377283 -0.072863 -0.026487
-0.010716 -0.049996 -0.017003
-0.064857 0.097075 0.022146
0.353712 -0.120063 -0.019503
-0.069265 -0.105236 -0.018348
-0.305340 0.093817 -0.013736
-0.033793 0.087862 -0.001974
0.171704 -0.034144 0.019161
0.303356 -0.114595 0.017146
0.015114 0.117374 -0.021285
0.054249 0.000113 0.016043
0.395275 -0.010133 0.022996
0.159251 0.041144 0.021495
-0.220881 -0.009381 0.009661
-0.014892 0.118560 0.022409
0.083274 0.121448 -0.018483
0.081815 -0.113451 -0.022960
-0.219459 -0.108496 -0.031398
-0.273170 -0.111157 -0.029911
0.084577 -0.056666 0.003675
-0.223862 0.031719 -0.020116
0.177226 0.033071 0.012560
0.105765 -0.081447 -0.001239
-0.196790 0.112364 0.017679
0.250775 -0.011314 -0.022909
-0.390999 0.048619 0.021056
0.252417 0.047493 -0.014034
-0.078894 0.033009 0.024134
-0.011437 -0.029864 -0.023181
-0.158152 -0.045845 0.021092
0.020619 -0.030739 -0.024432
0.417392 -0.089614 0.006946
-0.137054 -0.141535 0.003756
-0.165772 -0.019270 -0.023040
-0.233430 0.056993 0.031919
-0.232330 0.106914 0.003782
0.175426 -0.027041 -0.023914
-0.139089 0.128956 0.013337
0.304239 -0.097985 0.021719
-0.462713 -0.071182 -0.012153
0.265817 0.070905 -0.027611
0.423248 -0.073848 0.025098
-0.199420 -0.135297 0.007630
-0.385719 -0.062140 -0.018867
-0.422206 -0.037115 0.029979
0.104912 -0.018425 -0.025459
0.407505 0.009158 -0.021566
-0.207926 0.113550 -0.020119
0.158910 -0.142462 -0.011773
0.224666 -0.005403 -0.021223
-0.039018 0.104348 0.023884
0.231962 0.027538 0.024008
0.238500 0.028486 -0.019481
-0.094451 0.144233 0.010930
0.124618 -0.114671 -0.006639
0.098903 0.121539 0.021458
-0.015054 0.142926 0.007087
-0.451853 -0.056982 -0.022809
-0.240421 -0.142818 0.019979
-0.379138 -0.061730 0.021478
-0.118618 0.118897 0.014955
-0.162569 -0.038418 -0.020304
0.124829 -0.120221 -0.018343
-0.433333 -0.024512 -0.025611
0.178126 0.127965 0.020955
-0.001781 -0.147874 -0.017610
0.030264 -0.115104 -0.006781
0.170671 -0.145511 0.006950
0.209089 0.052372 -0.006846
-0.196125 0.080914 -0.009338
-0.178029 -0.051654 -0.013211
0.067280 -0.128695 -0.025513
-0.214124 -0.134553 -0.022956
0.139544 -0.007725 0.022396
0.167447 0.075077 0.015042
-0.188240 -0.081553 0.010858
0.179377 -0.018361 -0.002385
0.024211 0.145142 0.023185
0.160648 -0.141299 -0.018948
-0.130637 0.135633 -0.019390
0.032075 0.089398 -0.014692
-0.294011 -0.152006 -0.021027
-0.363317 -0.002113 0.015104
0.001451 0.138492 0.013460
-0.254274 -0.085000 -0.025789
-0.139683 -0.004838 -0.019379
-0.256809 -0.102210 -0.019507
0.281466 0.072820 0.016627
-0.011324 -0.073917 -0.022341
0.181202 -0.091587 -0.018880
0.098559 -0.013917 0.008280
-0.155437 -0.107618 -0.015035
0.318783 -0.144213 -0.010960
-0.016840 -0.032880 -0.022532
-0.010906 -0.135646 -0.012902
0.046460 0.029676 -0.000390
0.138943 -0.088216 0.017986
-0.485924 -0.018502 -0.025675
0.318853 0.097083 0.012352
-0.322932 -0.141195 -0.006963
-0.118776 -0.132070 -0.009573
0.176844 -0.024887 -0.021560
0.060732 -0.015044 0.019261
-0.214744 0.043104 -0.021087
0.234517 0.091327 0.016452
0.319290 -0.134447 0.020527
0.108460 -0.097081 -0.008918
-0.276240 0.098628 0.026304
-0.053222 0.134263 -0.020215
0.029028 0.096428 -0.020570
0.068671 -0.075585 -0.018460
0.104981 -0.124028 -0.026174
-0.139349 -0.065276 0.021676
-0.388532 0.043874 0.024949
-0.352020 -0.127808 -0.011289
-0.172584 0.086788 0.022831
-0.194045 0.081204 0.014124
-0.441045 -0.046672 0.021014
-0.107631 0.110445 0.013310
-0.159745 0.073403 -0.020035
0.324805 0.087410 0.012795
0.362440 0.062456 -0.015986
0.407691 0.040394 -0.007592
-0.415491 -0.100502 -0.001429
0.343158 -0.062847 -0.017518
0.014807 -0.009497 -0.025561
-0.269674 -0.006498 0.011885
0.018333 0.011119 0.022159
0.057104 0.148098 0.009125
0.504661 -0.042561 0.000563
-0.260492 0.033377 0.020317
-0.047935 -0.132530 -0.002754
-0.247504 0.116655 -0.010342
-0.331019 -0.124647 -0.022965
-0.133840 -0.137619 0.005340
-0.017610 -0.040578 0.012894
0.033268 -0.141276 -0.016930
0.154580 0.129420 0.014943
-0.307713 -0.148215 0.016099
-0.459663 0.025660 -0.006967
-0.424814 0.030474 -0.008022
-0.402168 -0.025668 0.009328
-0.201584 -0.005812 0.023474
-0.083828 0.130270 0.018678
0.335502 0.073218 -0.005764
-0.115833 -0.125440 -0.026547
0.213512 0.020013 -0.021808
0.396445 -0.058575 -0.018944
0.225222 -0.095239 -0.015510
0.057320 -0.065692 -0.009559
-0.194352 0.045462 -0.005187
-0.274052 -0.145601 -0.015260
-0.180923 -0.023004 -0.000664
