0.173206 -0.360159 -0.008919
0.204119 -0.325919 -0.024209
0.184255 0.137888 -0.019651
-0.186188 0.083553 -0.027473
-0.213491 -0.203818 -0.018531
0.222589 -0.294280 -0.018617
-0.228119 0.165146 -0.008892
0.199784 -0.314876 -0.008564
-0.211867 0.472267 0.014492
-0.193723 0.470979 0.019874
-0.214722 -0.056689 -0.029517
-0.190378 0.057262 -0.026521
0.172421 0.376433 -0.029673
0.166540 -0.232878 -0.031269
0.222802 0.435558 -0.003648
0.190505 0.427705 -0.033203
0.232317 -0.163678 -0.022842
-0.190160 -0.137875 -0.012079
-0.182098 -0.442430 0.020644
0.195078 -0.468459 -0.031084
0.175558 0.113247 -0.020727
-0.206923 0.472178 -0.006683
-0.184431 0.165917 -0.015170
-0.170172 -0.348341 -0.007709
0.007122 -0.423461 -0.032122
-0.159077 -0.363793 -0.027813
-0.188693 0.437773 0.028697
-0.094470 0.489117 -0.005389
-0.151553 0.234626 -0.019302
0.077609 -0.492400 -0.030605
0.103618 0.457549 -0.025503
0.176163 0.192782 -0.012061
-0.213319 -0.159163 -0.031097
-0.154884 0.166172 -0.037926
-0.180074 0.329337 -0.033242
-0.130868 -0.480884 -0.019942
0.231369 0.126186 -0.009636
-0.196078 -0.326780 -0.009314
0.207181 -0.406257 -0.028065
0.213995 -0.049871 -0.030618
0.196009 0.439021 -0.000334
-0.168860 0.161226 -0.020709
-0.234896 0.226268 -0.029619
-0.076106 -0.452569 -0.010078
0.199242 -0.125108 -0.024545
-0.239957 0.328828 -0.021841
0.237112 0.067637 -0.012629
0.169190 -0.198254 -0.008853
-0.196379 0.213628 -0.037395
0.160807 0.239058 -0.023591
-0.046603 0.451401 -0.009972
0.175596 -0.465734 0.030962
0.182944 -0.032512 -0.026172
0.162290 -0.066609 -0.020750
0.038383 0.451952 -0.024409
0.191109 0.484345 -0.008323
-0.182147 -0.164753 -0.011369
0.161753 -0.099386 -0.035243
0.180862 -0.066728 -0.033466
0.198627 0.484375 0.017064
-0.169188 -0.230205 -0.008219
-0.011845 -0.455666 -0.045756
0.230831 -0.462287 -0.024055
0.168072 -0.085476 -0.015587
-0.229124 -0.020773 -0.011886
-0.077240 0.475961 -0.035379
-0.219556 -0.311143 -0.012338
-0.108248 -0.442611 -0.015434
0.033200 0.454910 -0.021106
-0.211898 -0.425707 -0.025330
0.037643 -0.434472 -0.025265
-0.161288 0.071745 -0.036000
0.134001 -0.444380 -0.023058
-0.159526 0.269161 -0.026308
-0.173989 0.154229 -0.012202
-0.149309 -0.467815 -0.009419
-0.192315 -0.442513 0.029883
0.216548 -0.386124 -0.040173
0.226244 -0.093763 -0.039262
0.208227 0.485782 -0.001101
0.155969 -0.070166 -0.010064
-0.155628 0.465201 -0.029332
0.218361 0.079387 -0.030845
0.200058 -0.027060 -0.013597
0.199844 0.052821 -0.032005
-0.222079 0.194994 -0.012425
0.190572 0.386962 -0.033874
-0.001110 0.464704 -0.029513
-0.221415 0.081742 -0.029165
0.139646 0.506541 -0.036577
0.172244 -0.249824 -0.023138
-0.104923 0.456126 -0.010294
-0.168287 -0.365021 -0.023978
-0.174778 -0.115674 -0.008435
0.005096 0.458262 -0.007606
0.191528 0.432636 -0.015542
0.162665 0.327332 -0.015377
-0.210466 0.293776 -0.015452
0.155223 0.103589 -0.017817
-0.053371 -0.473156 -0.011597
-0.215769 -0.488311 -0.032918
0.151888 -0.245136 -0.013088
-0.198716 -0.048267 -0.005707
0.128605 0.484963 -0.024998
0.015399 0.489781 -0.006104
0.193241 0.333712 -0.032626
0.018044 -0.443217 -0.025412
0.146822 0.462853 -0.019274
-0.026525 0.469543 -0.030463
0.176640 0.392873 -0.011527
0.164826 0.295833 -0.016372
-0.163298 0.017441 -0.031360
-0.175358 -0.362347 -0.022584
-0.217957 -0.482560 -0.013242
-0.088213 0.458879 -0.010003
0.169121 0.368439 -0.010212
-0.202429 0.117536 -0.029469
-0.197948 0.340545 -0.024955
0.172401 0.215729 -0.008004
0.210573 0.468804 -0.016923
-0.163888 -0.043880 -0.014269
0.167285 0.286425 -0.013176
0.161761 0.373708 -0.023448
0.208228 0.455715 -0.030780
0.130362 -0.439843 -0.013176
0.230401 -0.249950 -0.020493
-0.159178 -0.010782 -0.020088
-0.211383 0.354885 -0.005414
0.176594 0.258843 -0.029547
-0.205032 -0.289523 -0.027021
0.000934 -0.444776 -0.012472
0.195745 0.298003 -0.034763
-0.165537 -0.328161 -0.022923
0.220826 -0.279059 -0.027585
-0.176010 0.009515 -0.008544
0.163039 0.371194 -0.042057
0.186559 -0.075574 -0.030127
0.202413 0.471182 0.005713
0.162703 0.213662 -0.010112
0.165627 0.301498 -0.020074
0.178314 -0.476349 0.025355
-0.166817 -0.428710 -0.031179
-0.198455 0.370208 -0.014049
-0.202597 -0.374202 -0.009455
0.177130 -0.245213 -0.033596
-0.218195 -0.183223 -0.011797
0.159025 0.302202 -0.013867
0.165611 0.264453 -0.030628
0.230099 0.104462 -0.021409
0.191724 -0.286042 -0.011667
-0.188563 -0.114953 -0.038266
0.198561 0.311684 -0.016813
0.071205 -0.444979 -0.012074
0.221886 -0.051110 -0.024882
0.152750 -0.303198 -0.025052
0.228031 0.070417 -0.008198
-0.207682 -0.397235 -0.028988
0.226256 0.426979 -0.026498
-0.223043 0.309344 -0.024432
-0.166339 -0.142109 -0.006357
0.208659 -0.493605 -0.016822
-0.215151 -0.260231 -0.016043
0.182779 -0.248054 -0.013346
0.230317 0.411836 -0.012501
0.187524 -0.508547 -0.017582
-0.059115 0.466270 -0.016154
0.088247 0.494075 -0.014102
-0.184060 -0.295796 -0.019644
0.080420 -0.437995 -0.006801
0.115733 0.474879 -0.022673
-0.165967 0.439956 -0.032729
0.181968 -0.028997 -0.013234
-0.161887 -0.088396 -0.011609
-0.084643 -0.485296 -0.016270
-0.153787 -0.475828 -0.026471
0.096384 0.493674 -0.031888
0.080903 0.432525 -0.018788
-0.177647 0.229866 -0.015428
0.128077 0.445272 -0.029418
0.168545 -0.446138 0.021488
-0.152688 0.447877 -0.032342
-0.187373 0.417700 -0.029011
0.192221 0.433906 -0.029215
0.159153 -0.444412 -0.033353
-0.199922 0.371325 -0.014059
-0.174993 0.183961 -0.020572
-0.041218 -0.473628 -0.016433
0.154705 -0.352130 -0.017673
0.018449 -0.475873 -0.025060
0.223759 -0.300923 -0.015201
0.219902 -0.104495 0.002193
0.155236 0.409463 -0.025732
-0.231247 0.370655 -0.028913
0.114036 -0.449155 -0.027088
-0.185058 -0.492315 -0.024551
-0.072927 -0.429843 -0.016557
0.189129 0.452002 -0.031688
0.162624 0.375791 -0.025409
-0.134512 0.452927 -0.015981
0.171038 0.490630 0.003468
0.178479 0.148131 -0.019623
-0.178219 0.104033 -0.010176
0.175056 0.216318 -0.010333
0.221023 0.393559 -0.016327
0.202460 -0.113952 -0.029676
0.214573 -0.155646 -0.029196
0.202044 0.016431 -0.009085
-0.229062 -0.257223 -0.017743
-0.179137 0.047238 -0.020772
0.170833 -0.245702 -0.008258
0.226381 -0.217216 -0.025005
-0.231994 0.231722 -0.034138
0.174691 -0.403746 -0.032859
0.191393 -0.491352 -0.007831
-0.178027 0.362486 -0.006210
-0.187564 0.471119 -0.030371
-0.220035 0.181949 -0.024283
0.093815 -0.437007 -0.009541
0.134684 -0.456843 -0.012018
-0.174516 -0.197467 -0.028378
-0.158901 0.126579 -0.010644
0.183537 -0.078090 -0.006949
-0.225898 -0.058947 -0.018624
0.185125 -0.267888 -0.021003
-0.172312 -0.312264 -0.036825
-0.170940 0.090016 -0.014828
-0.143269 -0.486292 -0.015374
-0.204293 0.019831 -0.025446
-0.218068 -0.019487 -0.006985
0.225553 0.304397 -0.032034
0.169283 0.033809 -0.030531
-0.017224 0.458559 -0.017173
-0.178234 -0.113096 -0.018566
0.207800 -0.064396 -0.031337
0.195005 0.081160 -0.009956
-0.167515 -0.317368 -0.013450
0.186376 -0.197643 -0.034045
0.189431 0.124624 -0.033076
0.171283 -0.073532 -0.013145
0.169558 -0.006118 -0.034854
-0.165378 -0.098532 -0.023695
0.207748 -0.475819 0.017482
-0.150467 0.483639 -0.005956
0.213184 0.336118 -0.020568
0.184973 0.474936 -0.023869
-0.172541 -0.091114 -0.027410
0.211539 -0.451595 0.009524
0.160065 -0.458295 0.019123
-0.171893 0.485741 -0.011936
0.210085 -0.298009 -0.024672
0.198853 0.362310 -0.026895
0.219033 -0.191324 -0.020381
0.220182 -0.450295 -0.028178
-0.207390 -0.029151 -0.014775
-0.108739 -0.424451 -0.021044
-0.028887 -0.478492 -0.013027
0.218523 -0.389902 -0.024213
-0.193175 0.495268 -0.033751
-0.193848 -0.472646 0.035181
-0.163095 0.269327 -0.029207
0.204873 0.166760 -0.007172
-0.162758 -0.122325 -0.030639
0.110601 -0.492185 -0.007547
0.028136 -0.427623 -0.035189
0.194327 -0.162472 -0.025854
0.040694 0.464293 -0.013218
0.161091 -0.165822 -0.020759
0.114113 -0.483168 -0.022355
0.199591 0.441129 0.000021
0.212639 -0.281433 -0.004693
-0.028944 0.497015 -0.026043
-0.200580 0.426047 -0.026967
-0.208896 0.136421 -0.009540
-0.176274 0.149542 -0.011616
-0.185792 -0.118242 -0.030714
-0.202227 -0.452209 -0.029598
0.158260 0.274030 -0.011431
0.055256 0.468483 -0.030486
-0.186153 -0.104248 -0.020734
-0.212376 0.300448 -0.013142
-0.173962 -0.434664 -0.015713
-0.226859 -0.246285 -0.009910
0.216340 -0.126968 -0.028242
-0.164410 -0.017157 -0.031695
0.214864 0.203528 -0.014407
-0.185581 -0.451460 0.031291
0.156868 -0.343085 -0.016822
-0.165593 -0.452026 -0.033973
-0.186461 0.003520 -0.018786
0.200692 0.268398 -0.028889
0.203959 0.086867 -0.025867
-0.197394 -0.377382 -0.008744
0.228502 -0.199052 -0.017888
0.200271 -0.375366 -0.029251
-0.181017 -0.070031 -0.013755
0.188635 0.413880 -0.012389
-0.221623 -0.357408 -0.005376
0.188421 0.055481 -0.027436
-0.022530 -0.481338 -0.026623
0.193059 0.132876 -0.014932
-0.181208 0.353277 -0.007761
-0.200058 -0.104400 -0.009445
0.187173 -0.165439 -0.034447
-0.186203 0.481113 -0.023705
-0.210621 -0.232010 -0.029713
0.163104 -0.466279 0.023495
0.034022 -0.435662 -0.032751
-0.183175 0.278589 -0.004389
0.169131 0.469660 0.027258
-0.119806 0.482748 -0.007585
-0.112933 0.445556 -0.025246
0.199516 -0.255022 -0.021463
0.211585 -0.052679 -0.034740
0.213916 0.264823 -0.006983
0.181249 -0.418855 -0.027577
-0.212473 0.467422 -0.011079
-0.188729 0.101859 -0.017495
0.220589 0.116940 -0.036021
-0.159350 0.408761 -0.020471
-0.157886 0.074519 -0.019773
-0.173919 0.116870 -0.007430
0.210575 0.156935 -0.006173
0.062380 0.439342 -0.013142
-0.092030 0.436829 -0.019106
0.181072 -0.113707 -0.022982
0.170177 0.232387 -0.017782
0.009698 0.468739 -0.032252
0.186279 -0.491217 -0.033532
0.187588 0.022172 -0.019570
0.203779 -0.460446 0.015171
-0.164517 -0.445715 -0.017073
0.208095 -0.168993 -0.030018
0.164631 0.221383 -0.020063
0.216144 -0.201959 -0.024240
0.023173 0.488937 -0.017835
-0.186583 -0.124974 -0.016775
0.067490 -0.489938 -0.032984
-0.184447 0.054900 -0.010068
0.223214 0.416724 -0.024027
0.094299 -0.438223 -0.033066
0.082214 0.480547 -0.037483
0.127046 -0.461813 -0.024558
0.180268 0.495489 -0.017793
0.208832 -0.395156 -0.026667
-0.210600 -0.453370 0.025741
-0.174394 0.034631 -0.026913
0.218041 -0.387546 -0.026531
0.197608 0.234787 -0.042751
0.183800 0.393982 -0.027059
0.205309 -0.096820 -0.022383
-0.189973 0.311730 -0.037092
-0.216405 0.369457 -0.018004
-0.168592 -0.495177 -0.021956
-0.018313 -0.487011 -0.018131
0.200939 0.453318 0.018530
-0.060014 0.435081 -0.013717
-0.218683 0.177432 -0.029025
0.193230 0.481414 0.028443
-0.210649 0.256619 -0.016326
-0.040985 0.458914 -0.023554
0.172158 -0.178842 -0.008075
-0.169187 0.126850 -0.022491
0.178508 -0.071800 -0.033838
-0.215795 -0.092382 -0.019458
-0.225742 0.132879 -0.013105
-0.003233 -0.498239 -0.015259
0.169105 0.040799 -0.018939
-0.173361 -0.092309 -0.014256
-0.056117 -0.497057 -0.016469
0.127139 0.471326 -0.019376
-0.190362 -0.017833 -0.011060
0.173408 0.325247 -0.020323
-0.158991 0.079940 -0.031585
-0.169185 0.273999 -0.022109
-0.098192 -0.501706 -0.025345
0.174764 -0.483706 0.004679
0.191517 -0.239243 -0.021246
-0.059910 0.449431 -0.009738
-0.190113 0.230643 -0.010157
-0.182884 -0.094003 -0.003541
-0.137838 -0.499006 -0.011747
-0.205017 0.107988 -0.030932
-0.169208 -0.092163 -0.014744
0.197945 -0.184961 -0.004235
-0.035772 0.484516 -0.014743
-0.158583 -0.186927 -0.005053
0.216608 -0.289830 -0.018070
-0.205935 -0.079763 -0.014894
-0.232875 0.364365 -0.011673
-0.104512 -0.431733 -0.029887
-0.219151 -0.145917 -0.010473
0.038701 0.451850 -0.018785
0.151931 -0.168226 -0.031327
-0.196321 -0.225747 -0.026083
0.178638 0.438808 0.008551
0.035148 -0.478874 -0.028909
0.223873 -0.463269 -0.012398
0.152593 -0.505997 -0.002632
0.166283 -0.451992 -0.017913
0.000962 -0.463162 -0.029532
0.065240 -0.441315 -0.010638
-0.163354 -0.010119 -0.012857
0.213599 0.322588 -0.033033
0.074410 0.493666 -0.025234
0.181248 -0.075185 -0.030966
-0.183935 0.183783 -0.016703
-0.075635 0.463642 -0.019779
-0.178966 0.077359 -0.007896
0.216509 0.171434 -0.021791
-0.157681 0.005616 -0.008911
-0.235177 -0.344829 -0.018219
0.175260 -0.036334 -0.029048
-0.114480 0.492639 -0.017324
-0.019250 -0.467120 -0.011840
-0.220557 0.190505 -0.033385
0.168271 -0.277000 -0.012138
0.168958 -0.226761 -0.018501
0.124886 -0.443576 -0.022942
0.026106 0.464323 -0.022904
0.167681 -0.226464 -0.021502
-0.162791 0.288853 -0.023518
-0.171905 -0.008214 -0.014736
-0.220795 -0.469273 -0.028952
0.151592 -0.267872 -0.027988
0.170507 0.311416 -0.023907
0.034923 -0.468486 -0.034945
-0.209569 -0.269532 -0.020854
-0.160815 0.125713 -0.011299
0.163417 0.257913 -0.006451
0.171561 0.119200 -0.029107
0.206110 0.092429 -0.007455
-0.222609 0.385782 -0.023183
-0.110846 -0.463321 -0.020038
-0.021228 0.464519 -0.008955
-0.215613 -0.336882 -0.013799
0.218193 -0.084842 -0.011997
-0.200236 0.436542 -0.006733
0.172605 0.423500 -0.016697
0.157984 -0.498551 -0.019017
-0.177600 -0.037806 -0.010643
0.210412 0.220051 -0.014706
-0.180817 -0.312644 -0.031250
0.156353 -0.106029 -0.023234
0.197594 -0.331950 0.000909
0.176923 -0.493104 -0.024262
0.215346 0.253236 -0.016881
-0.031100 -0.444780 -0.025778
-0.176019 -0.060925 -0.033576
-0.236430 0.182493 -0.021229
-0.170687 -0.481424 -0.013567
-0.227599 0.052858 -0.024721
0.225202 0.442049 -0.024296
-0.175803 0.487619 -0.014767
-0.090299 -0.497986 -0.022508
0.230891 0.390972 -0.009059
-0.085499 -0.495430 -0.003829
0.163809 0.162698 -0.031319
-0.223098 -0.156954 -0.005667
-0.220054 0.384283 -0.031616
0.216217 0.448362 -0.002925
0.016442 -0.478383 -0.017794
0.222340 0.317874 -0.012982
0.209538 0.251582 -0.013355
0.198331 0.019639 -0.009759
0.198606 0.284320 -0.024818
0.209569 0.263388 -0.012620
0.208586 0.074156 -0.020174
0.178527 -0.348025 -0.007465
-0.042952 0.501020 -0.025659
-0.221420 0.391542 -0.012687
-0.211262 0.348430 -0.011709
0.164037 0.175476 -0.028974
-0.223021 0.434586 -0.014601
0.158028 -0.206962 -0.008305
-0.119185 0.482786 -0.019765
0.183948 -0.492277 -0.030049
0.188401 0.489165 -0.023898
0.173042 0.158876 -0.030936
0.230590 0.420725 -0.025568
-0.198707 0.372544 -0.034570
0.174706 0.172237 -0.017777
0.190847 -0.284385 -0.008611
0.179749 0.171803 -0.026928
0.129687 -0.472524 -0.012789
-0.193611 -0.079284 -0.021803
-0.100647 -0.468103 -0.018643
-0.220543 -0.457292 -0.033643
-0.048049 0.446039 -0.020315
0.179930 -0.149316 -0.030864
0.204686 -0.190460 -0.015218
-0.208713 -0.056409 -0.010686
0.168173 -0.125657 -0.017858
-0.215501 0.389979 -0.025249
-0.200194 -0.326283 -0.009124
-0.028891 0.502983 -0.010632
-0.215012 0.063510 -0.010456
0.216709 -0.265802 -0.019915
0.131520 0.433841 -0.011678
-0.170424 0.148414 -0.034239
0.177791 0.477718 -0.022240
-0.181293 0.046035 -0.025516
0.167245 0.091888 -0.017209
-0.181652 -0.378673 -0.005805
-0.071074 -0.498759 -0.030440
-0.200652 0.067815 -0.026605
-0.124001 0.472826 -0.039587
0.004301 -0.494018 -0.018386
0.177314 0.126923 -0.016988
0.176332 -0.172006 -0.035494
-0.175959 0.180302 -0.025474
0.131734 -0.446430 -0.033830
0.213483 -0.295342 -0.015485
-0.222291 0.069054 -0.025214
-0.169379 -0.137618 -0.009017
-0.220678 0.490437 -0.010234
-0.232528 0.237739 -0.015201
-0.170986 0.199287 -0.033189
-0.002015 -0.468895 -0.010014
0.018265 -0.466580 -0.039179
0.174627 -0.105494 -0.035434
-0.166591 0.043514 -0.037655
0.231210 0.308908 -0.022932
-0.055513 -0.437213 -0.010372
0.217159 -0.020903 -0.011565
-0.189593 -0.215330 -0.038862
-0.094376 -0.501001 -0.017522
0.177159 -0.133408 -0.012092
-0.199449 -0.029191 -0.004159
-0.212238 -0.002044 -0.019961
-0.202638 0.165895 -0.031286
0.198041 0.445439 0.026719
-0.134624 0.495303 -0.023613
0.190444 -0.251606 -0.030591
0.163193 0.165779 -0.010298
0.134827 0.457841 -0.021478
-0.218336 -0.439481 -0.020820
0.233323 0.164427 -0.006688
-0.158006 0.157353 -0.011948
0.212005 0.417881 -0.013075
-0.050827 -0.473889 -0.027350
-0.166871 -0.461721 0.014210
-0.184522 -0.414361 -0.016987
-0.174103 0.253980 -0.006734
0.204884 0.303606 -0.023525
-0.188929 0.362967 -0.033349
-0.211037 -0.452274 0.037110
0.210560 -0.140259 -0.012864
-0.225898 0.234793 -0.018156
-0.189054 0.463486 0.025574
0.020361 0.437860 -0.031430
-0.225054 -0.465622 -0.031200
0.162487 -0.314395 -0.017188
-0.184282 -0.238165 -0.027161
0.176872 -0.467267 0.031501
-0.150233 -0.497663 -0.030461
0.188657 -0.488025 -0.019492
0.043246 0.474641 -0.022164
0.158785 0.227470 -0.019920
0.203724 -0.018521 -0.016646
-0.189516 -0.495940 -0.013494
0.169710 -0.281219 -0.015094
-0.153244 -0.184173 -0.009460
0.230579 -0.313467 -0.011293
0.211504 0.445013 -0.029430
0.063033 0.481145 -0.030238
-0.157474 -0.390086 -0.012415
0.191598 -0.198940 -0.021906
-0.201616 -0.323746 -0.031911
0.211150 0.135377 -0.022733
0.202045 -0.484548 0.016088
-0.162758 0.435330 -0.021616
-0.188202 -0.139891 -0.031122
-0.195026 -0.402789 -0.007819
-0.169304 0.489512 -0.002257
-0.185119 0.047544 -0.009823
0.192216 -0.259136 -0.008076
0.167384 -0.051828 -0.012697
0.154680 0.437774 -0.021232
0.197880 0.122560 -0.008403
-0.224145 -0.102210 -0.017402
-0.213337 -0.300086 -0.023580
0.209882 -0.069129 -0.012672
0.201822 0.170207 -0.030464
0.203984 0.197229 -0.007678
-0.188149 0.334026 -0.011247
-0.233018 0.050055 -0.025856
-0.192561 -0.060612 -0.032165
-0.179011 0.443675 0.023039
0.206058 -0.257873 -0.030095
-0.177382 -0.435630 0.036145
0.166063 -0.175584 -0.030923
0.162892 -0.403340 -0.012395
0.167403 -0.041641 -0.021410
-0.169847 0.463470 -0.037765
0.029382 0.468790 -0.037993
0.217931 -0.276886 -0.035952
0.214248 0.178849 -0.029356
-0.205422 -0.477103 0.009071
-0.226539 -0.394901 -0.014841
-0.104467 0.508090 -0.013783
0.184539 -0.017660 -0.020873
0.181321 -0.223911 -0.012381
0.229257 0.467166 -0.022679
-0.122046 0.483376 -0.029002
0.011032 -0.459561 -0.007597
0.162601 0.191956 -0.031249
-0.165394 0.411236 -0.016519
0.182196 -0.367909 -0.012323
-0.212331 -0.459528 -0.033731
-0.166420 0.246442 -0.010544
0.168018 -0.207261 -0.006004
0.049750 -0.452457 -0.014655
0.012548 -0.494892 -0.012372
0.145042 0.433906 -0.012139
-0.197658 0.455289 0.029151
0.218130 -0.177374 -0.031886
0.160879 -0.111394 -0.025050
0.181290 0.471208 0.024898
-0.220010 -0.452352 -0.005551
0.155295 0.039614 -0.023418
-0.166069 -0.209523 -0.000474
-0.179137 0.021124 -0.039601
-0.224056 -0.272940 -0.016234
0.156198 0.350124 -0.030232
-0.192011 0.355698 -0.012169
0.171543 -0.199107 -0.033386
0.154409 -0.044573 -0.021534
-0.228882 -0.370835 -0.023505
0.192203 0.296291 -0.014104
0.201628 -0.300662 -0.035012
0.204709 0.311768 -0.027919
0.209846 0.310819 -0.012325
-0.217888 0.162631 -0.029222
0.172547 0.165909 -0.034797
-0.000084 -0.499620 -0.028990
-0.213766 0.348552 -0.016825
-0.104604 -0.461205 -0.018447
0.052899 0.473895 -0.007806
-0.182600 -0.332990 -0.029069
-0.212982 -0.086189 -0.029808
0.206285 0.145349 -0.029893
0.221010 0.041120 -0.034110
0.092331 -0.499066 -0.014256
0.100981 -0.461625 -0.034527
0.181018 -0.471368 0.028865
0.172827 -0.175896 -0.027670
-0.165469 0.320400 -0.025316
0.205467 -0.230098 -0.015314
-0.206361 0.306051 -0.031871
0.139502 -0.491870 -0.020825
-0.205108 -0.184626 -0.031601
0.178784 -0.162574 -0.036124
0.180368 0.270899 -0.010951
0.164476 0.186259 -0.025628
0.184214 0.147953 -0.025969
0.198898 -0.012721 -0.018787
-0.148398 0.449477 -0.007410
0.164956 -0.358830 -0.031677
-0.157985 0.052621 -0.036828
0.164678 0.002563 -0.013707
-0.205393 -0.435820 0.009800
0.180000 -0.062657 -0.004513
-0.153894 -0.492497 -0.013032
-0.172335 -0.146439 -0.025525
0.196229 0.478302 0.009323
-0.201236 0.182547 -0.007297
0.167119 0.248027 -0.027309
0.202131 -0.495306 -0.005564
-0.204761 0.411375 -0.020992
-0.172556 0.025287 -0.015772
0.118915 -0.450224 -0.036560
-0.186056 0.318911 -0.017965
0.206827 0.334179 -0.021078
-0.142454 0.426783 -0.030461
0.169077 0.439075 0.016867
0.119837 0.472065 -0.033328
0.224329 -0.071327 -0.020609
0.211576 -0.213116 -0.011076
0.095984 0.493060 -0.026699
0.180014 -0.442990 -0.032519
-0.076711 0.440505 -0.009206
-0.047550 -0.482063 -0.040240
-0.184142 0.430465 -0.019496
-0.204251 -0.372040 -0.013746
0.131718 0.469002 -0.027985
-0.182006 -0.426595 0.015557
-0.204763 0.049857 -0.011071
0.222937 0.201999 -0.018617
-0.230055 0.377012 -0.015734
0.158681 0.434075 0.018302
0.171650 -0.483028 -0.014334
0.131596 0.472813 -0.028249
-0.067190 0.431811 -0.016482
-0.035036 -0.491436 -0.030279
-0.193434 0.067787 -0.027692
0.170471 -0.472812 0.031228
0.223384 -0.328650 -0.036226
0.229768 0.279609 -0.029583
0.212842 -0.337205 -0.029534
0.208314 0.011346 -0.025159
0.166287 -0.418524 -0.012086
-0.010105 0.498089 -0.018314
0.208093 0.462615 -0.032070
-0.214177 0.373805 -0.008172
-0.204095 0.312857 -0.026593
-0.182871 -0.256079 -0.007949
-0.156038 -0.303453 -0.016847
0.163812 -0.241735 -0.028216
-0.228710 0.245312 -0.004541
-0.156026 -0.140107 -0.010858
0.206329 0.477146 0.027537
-0.221922 0.024323 -0.027357
-0.212849 -0.385413 -0.008076
0.030336 -0.496767 -0.034555
-0.214782 -0.490187 0.006732
0.227534 -0.145341 -0.021599
-0.137382 0.443187 -0.029105
-0.047599 -0.465306 -0.011534
-0.163480 -0.469466 0.034809
0.176719 0.130887 -0.026405
-0.211850 0.345823 -0.035199
0.056402 -0.449545 -0.030640
-0.186291 -0.087696 -0.029660
0.016593 0.439261 -0.013763
0.219947 -0.490075 -0.014186
-0.199957 0.312759 -0.016672
0.159687 -0.480475 -0.015218
0.200362 0.213492 -0.013784
0.162816 -0.340446 -0.018838
-0.126737 -0.435144 -0.029451
-0.213841 -0.337002 -0.025393
-0.218468 0.017396 -0.021647
-0.182717 0.082525 -0.007146
0.176001 0.201460 -0.026563
0.165502 -0.392157 -0.012282
-0.205839 0.214409 -0.026048
-0.096488 -0.446876 -0.017824
0.229575 -0.388288 -0.018695
0.211669 0.015321 -0.022551
0.052915 -0.477221 -0.027178
-0.222775 0.299566 -0.009076
-0.200221 -0.078058 -0.032023
-0.205973 -0.059464 -0.013382
-0.191984 0.193910 -0.014527
0.185391 0.087482 -0.012210
-0.078558 0.429272 -0.028341
0.185978 0.089700 -0.028912
0.090491 0.482460 -0.017726
-0.116439 0.449613 -0.019027
0.208417 0.484786 0.000344
-0.169782 0.309657 -0.030946
-0.194996 -0.439443 0.037038
-0.004934 -0.476619 -0.011926
-0.201958 0.263902 -0.019660
-0.182603 0.314327 -0.007766
0.198232 0.039080 -0.032890
-0.115861 -0.498669 -0.032621
-0.162510 -0.395042 -0.025237
0.198558 -0.193898 -0.014465
-0.208848 -0.459105 0.024543
-0.134538 -0.496760 -0.029836
-0.182138 0.038631 -0.016699
-0.200343 -0.247597 -0.010297
0.226486 0.354028 -0.026087
-0.092322 -0.459413 -0.026802
0.032554 -0.444558 -0.029908
0.095287 -0.507326 -0.019891
0.217640 -0.429629 -0.018519
0.159451 0.033074 -0.018639
-0.108916 -0.471760 -0.029132
0.161734 -0.508353 -0.029558
-0.161529 -0.465037 -0.005799
0.014249 -0.496300 -0.007399
0.219311 -0.445128 -0.011544
0.225409 0.398110 -0.017779
0.064741 0.487621 -0.013615
-0.214801 0.048782 -0.012648
-0.184655 -0.380999 -0.007044
-0.221093 -0.171024 -0.015909
0.178953 0.339874 -0.015601
-0.160891 -0.028581 -0.024271
0.190374 0.445184 0.029004
-0.226037 -0.446745 -0.028868
-0.075891 -0.497172 -0.012287
-0.163214 -0.494889 -0.010359
-0.220508 0.224817 -0.026469
-0.177629 -0.325119 -0.031304
-0.161773 0.389540 -0.023087
0.193940 0.183558 -0.014811
-0.196638 0.030253 -0.029661
0.176185 -0.044977 -0.013545
-0.012433 0.479035 -0.007642
0.208069 -0.267589 -0.031106
-0.138269 -0.468099 -0.032810
0.197423 0.425151 -0.025282
0.179223 0.227933 -0.024515
-0.176652 -0.463703 0.037626
-0.128866 -0.464760 -0.029647
-0.165862 0.127713 -0.027272
0.219222 -0.055622 -0.024755
-0.212083 0.462022 0.013599
-0.228046 -0.220857 -0.021197
-0.215856 -0.376664 -0.033064
0.101844 -0.440014 -0.010757
0.227726 -0.292988 -0.011839
-0.080539 -0.449647 -0.013069
0.176870 -0.378114 -0.007798
0.210088 0.353434 -0.033157
0.193751 -0.433440 0.024677
0.183360 -0.471654 -0.034761
0.226811 -0.433743 -0.023388
-0.141242 -0.506251 -0.023947
-0.219474 -0.456987 0.014848
0.197254 0.224622 -0.032835
0.222260 0.070965 -0.023910
-0.192610 -0.395074 -0.031308
-0.163250 -0.130380 -0.025888
-0.183097 0.461768 -0.023987
-0.099841 -0.468718 -0.009085
-0.203212 0.330058 -0.027216
0.182863 0.344267 -0.034216
-0.204512 -0.290215 -0.011082
0.038921 -0.499202 -0.020056
0.091074 0.451357 -0.033202
-0.056404 -0.442141 -0.013104
0.192498 0.332170 -0.013530
0.185787 -0.120929 -0.009633
0.182995 0.100809 -0.025476
0.163273 -0.247034 -0.014685
0.186686 -0.209688 -0.015320
-0.189343 0.456887 -0.037751
-0.216128 -0.113425 -0.021580
0.161602 -0.322303 -0.020299
-0.223637 0.207495 -0.022664
0.169487 -0.045514 -0.013857
-0.211323 -0.267625 -0.039405
0.107665 -0.488582 -0.028866
0.179787 0.138274 -0.019498
-0.145756 0.460723 -0.021266
-0.031562 0.474852 -0.009991
0.187897 -0.165031 -0.028630
0.207577 0.117430 -0.030648
-0.186894 0.069222 -0.031200
-0.033076 0.494446 -0.017256
0.175039 -0.419463 -0.012103
-0.230418 0.231140 -0.031195
-0.199899 -0.333832 -0.036303
0.206355 0.402624 -0.025678
-0.172127 0.164935 -0.032968
-0.001914 -0.489011 -0.010693
0.110760 -0.496851 -0.009299
-0.226271 -0.412184 -0.017138
-0.231124 0.300974 -0.009129
0.162869 0.396316 -0.032529
0.193472 -0.356390 -0.023440
-0.173549 -0.411985 -0.010764
-0.142201 0.473936 -0.028028
-0.153161 -0.423910 -0.014758
0.194096 -0.215060 -0.032183
-0.192347 0.476196 -0.019066
0.105481 0.484228 -0.003660
-0.232167 0.426306 -0.025544
-0.002173 -0.437684 -0.013445
-0.172111 0.417608 -0.027567
-0.230566 0.053883 -0.025343
0.226800 0.447735 -0.015338
0.012125 -0.461990 -0.028044
-0.228686 0.010425 -0.017011
-0.223841 -0.348477 -0.008844
-0.196633 0.176562 -0.033009
-0.219014 -0.470829 -0.003877
0.200820 -0.083556 -0.009386
-0.222159 -0.002752 -0.014864
-0.007533 -0.446206 -0.024267
0.223227 0.330508 -0.003391
-0.216939 -0.050375 -0.039229
-0.220747 0.113103 -0.016528
-0.212103 0.036008 -0.024792
0.167813 0.429005 -0.027143
-0.009379 0.476665 -0.035368
0.225801 -0.099152 -0.018559
-0.198252 -0.425745 -0.027869
-0.167634 -0.055129 -0.024831
-0.176528 0.150007 -0.012376
0.163619 -0.174785 -0.030031
0.179113 -0.379168 -0.035428
0.071113 0.496344 -0.006530
-0.189490 -0.114332 -0.034832
-0.169196 0.047122 -0.034837
-0.166961 0.174304 -0.031040
-0.171494 -0.131930 -0.006154
0.172056 -0.075954 -0.027200
-0.223222 -0.061769 -0.033095
-0.031386 0.445453 -0.005642
-0.193316 0.189666 -0.006287
0.181738 0.337572 0.002976
0.216177 0.356701 -0.027847
-0.211711 -0.450644 -0.005242
0.234303 -0.464868 -0.026139
0.170086 0.329185 -0.028785
-0.203544 0.345793 -0.031732
-0.040782 -0.441323 -0.011650
-0.181650 -0.170976 -0.007646
-0.190188 -0.369770 -0.021934
-0.174202 -0.227734 -0.033708
0.201663 0.465046 -0.003334
0.201244 -0.370349 -0.026448
-0.160242 0.422564 -0.018430
0.171183 -0.289874 -0.014950
-0.224663 -0.309840 -0.018644
0.169465 0.441719 0.017253
-0.198145 0.022694 -0.024394
-0.105386 0.477492 -0.006834
0.200724 0.418934 -0.024740
-0.186995 -0.119284 -0.016001
-0.165232 -0.437293 0.005335
0.228152 -0.286557 -0.013172
-0.177794 -0.273963 -0.015127
-0.233355 0.207171 -0.029023
-0.196436 0.219535 -0.031301
0.017442 -0.417970 -0.009819
0.174711 0.391264 -0.017516
0.203371 -0.017804 -0.012952
0.197442 0.330768 -0.008474
-0.163216 -0.250827 -0.002248
-0.164231 0.358231 -0.031007
0.119072 0.458531 -0.014487
0.182935 0.323677 -0.014721
0.153675 0.214627 -0.021756
-0.176440 0.363824 -0.029438
0.209044 -0.064185 -0.011613
0.202994 0.186413 -0.023553
-0.042198 -0.491589 -0.015096
-0.178454 0.242843 -0.004292
0.154477 0.445876 -0.013622
-0.236112 -0.368307 -0.016728
-0.174139 0.439924 0.011621
0.192010 -0.441380 0.019122
-0.110778 0.441600 -0.025313
0.162854 -0.132059 -0.026250
-0.141443 0.472902 -0.012781
-0.028954 0.443759 -0.013140
-0.088153 -0.491058 -0.020971
0.001114 -0.463156 -0.004960
-0.091441 -0.491186 -0.025172
0.049546 0.445452 -0.030344
0.182440 0.457270 -0.028593
-0.111842 -0.438472 -0.025255
0.169685 -0.393758 -0.012514
-0.161885 -0.454975 0.000480
-0.199984 -0.340374 -0.038430
0.123740 -0.489377 -0.024001
0.214712 0.189846 -0.007342
-0.180752 -0.239923 -0.011370
0.192484 0.481238 -0.033795
0.028765 0.481572 -0.004124
0.173473 0.255543 -0.012053
-0.163597 0.088530 -0.007046
0.217506 0.112428 -0.017009
0.155585 -0.492877 -0.023341
0.105208 0.495774 -0.021818
0.082369 -0.433384 -0.035367
-0.200554 0.499020 -0.018446
-0.225847 0.035968 -0.019786
-0.203841 0.493069 -0.009369
-0.185901 -0.426691 -0.028132
0.103992 -0.473386 -0.029550
-0.169145 -0.288993 -0.015518
0.165513 0.479659 0.008929
-0.178930 0.222485 -0.008909
0.206868 0.041864 -0.035089
-0.090377 -0.450343 -0.012351
-0.169512 -0.430311 -0.022291
0.219452 0.134364 -0.030919
-0.224449 -0.453126 -0.034589
-0.177106 0.190397 -0.034114
0.234227 0.365245 -0.015797
0.193677 0.064510 -0.032442
-0.160084 -0.178257 -0.024522
-0.141236 -0.443051 -0.014542
0.172893 0.162599 -0.009253
-0.200174 -0.495751 -0.027512
-0.181397 -0.367649 -0.022883
-0.208341 -0.107344 -0.015444
-0.182571 0.172639 -0.011868
-0.132191 0.456602 -0.028239
-0.230876 0.305180 -0.010093
-0.159006 0.352554 -0.024067
-0.078433 -0.433678 -0.018461
-0.207554 0.206942 -0.023499
0.218896 -0.252318 -0.009012
-0.197819 -0.435979 -0.038377
-0.177241 -0.154898 -0.018291
-0.194392 -0.052958 -0.003036
-0.207818 -0.318177 -0.024774
-0.189624 0.286940 -0.030009
0.204052 0.146247 -0.031930
0.148980 0.496636 -0.031918
0.226615 -0.044435 -0.012560
0.166049 -0.135493 -0.025059
0.185308 -0.309880 -0.016098
0.200011 0.390000 -0.027658
0.227637 0.384535 -0.023600
-0.128756 -0.435547 -0.017629
0.031250 0.438011 -0.010297
0.171698 -0.444742 -0.023306
-0.120007 0.461726 -0.012157
0.164956 0.348521 -0.014121
-0.191712 -0.472742 0.028258
0.183321 0.020695 -0.010395
0.168194 0.492544 -0.030224
0.217452 0.120918 -0.003543
0.213481 -0.473407 -0.031817
-0.224075 -0.076132 -0.015156
0.067836 0.450026 -0.023616
0.210009 -0.055887 -0.036274
-0.201470 -0.100320 -0.030785
-0.062385 0.462076 -0.031736
-0.172929 0.094285 -0.015268
0.143093 0.432760 -0.029406
0.109790 0.446092 -0.016368
0.189095 -0.191666 -0.029693
0.184438 0.451873 -0.031574
-0.165050 0.394518 -0.012849
-0.037928 -0.437191 -0.019838
0.174296 0.249703 -0.017142
-0.196081 -0.080148 -0.016269
-0.232230 -0.325317 -0.023746
-0.211440 0.177130 -0.033808
-0.211700 -0.223479 -0.023725
-0.172147 -0.061819 -0.024255
-0.204712 -0.487182 0.022382
-0.031696 -0.436176 -0.009931
-0.222276 -0.474969 -0.016753
-0.191482 -0.111977 -0.006476
-0.170316 0.117899 -0.012393
0.097564 0.470720 -0.006205
-0.121398 0.472157 -0.027164
0.172584 0.372541 -0.005639
-0.204140 0.227019 -0.014290
0.191239 0.292930 -0.033797
-0.196344 0.026508 -0.031071
-0.142973 -0.497066 -0.021882
0.172709 0.261795 -0.023706
-0.186907 0.451099 0.026448
-0.197224 0.355827 -0.029586
-0.189670 -0.393128 -0.018190
-0.081838 0.498772 -0.021225
0.184658 0.453746 -0.037250
0.054992 -0.455908 -0.031267
0.228953 0.030867 -0.019923
-0.206700 -0.184259 -0.022348
0.171667 0.437665 -0.021114
-0.120805 0.497148 -0.032417
-0.190527 0.314241 -0.018935
0.169017 0.470639 -0.028905
-0.202232 0.235105 -0.028889
-0.182944 0.087002 -0.007681
-0.194381 0.125857 -0.021503
-0.029957 0.495456 -0.016505
0.177776 -0.208951 -0.019065
0.113102 0.506617 -0.009706
0.200906 0.358613 -0.033435
-0.132264 -0.448904 -0.021025
-0.240955 -0.098285 -0.017003
-0.200741 0.237432 -0.019934
-0.225560 0.278028 -0.017399
-0.203361 0.217778 -0.012385
-0.122408 0.428221 -0.024803
0.172348 -0.444096 0.038631
0.208037 -0.120521 -0.015447
-0.180015 -0.184076 -0.023296
-0.198344 -0.483269 0.015778
0.159357 0.261170 -0.027014
0.154926 -0.303498 -0.028424
0.202526 -0.471926 -0.016377
0.156959 0.190433 -0.020214
0.198734 0.405337 -0.006803
-0.176301 -0.201167 -0.008709
0.163278 0.452219 -0.026550
-0.205574 0.336530 -0.021573
0.188223 -0.439157 -0.027097
-0.057379 0.464449 -0.020734
-0.223549 0.369246 -0.033600
0.180663 0.268201 -0.020966
0.165714 0.286385 -0.013476
0.192408 -0.107687 -0.018993
0.158483 -0.085716 -0.015355
-0.209212 0.458650 -0.027533
-0.199196 -0.339630 -0.011305
0.197093 0.053304 -0.007995
-0.178111 0.143078 -0.013616
0.149839 -0.499562 -0.027883
0.027178 -0.470066 -0.007062
0.198032 -0.445579 0.025261
-0.212835 -0.034314 -0.009017
0.202838 -0.435966 0.006820
0.086715 0.428959 -0.021350
0.204844 -0.118354 -0.031851
-0.059757 -0.501573 -0.012127
-0.215434 0.418070 -0.009155
-0.113574 -0.484250 -0.012576
0.158893 -0.361251 -0.025451
0.051096 -0.451453 -0.020451
0.182556 0.180678 -0.012071
0.173604 -0.312374 -0.029023
-0.231064 -0.181666 -0.006301
0.118524 0.497428 -0.014745
0.154776 -0.298989 -0.018362
-0.194196 0.209975 -0.020581
-0.211141 0.481020 -0.014257
0.223461 0.379172 -0.014182
0.224868 -0.180365 -0.019149
-0.195173 -0.136766 -0.015157
-0.047780 -0.489270 -0.024263
0.217467 0.056361 -0.028407
-0.168060 -0.474147 0.000902
0.017247 0.483848 -0.030314
0.219370 0.402052 -0.019793
-0.195128 -0.026937 -0.028361
0.231354 -0.200339 -0.021453
0.185581 -0.001935 -0.009254
0.166754 0.013361 -0.026093
-0.233846 0.301761 -0.021173
0.197647 -0.441123 0.000706
0.225205 0.035092 -0.017160
-0.220173 -0.200273 -0.015711
0.214737 0.347438 -0.009455
0.162957 0.405854 -0.009780
0.224893 -0.094266 -0.027578
-0.177579 -0.435216 0.033172
-0.060610 -0.459899 -0.011942
0.161275 0.347442 -0.023547
-0.227666 -0.008186 -0.024678
-0.200145 -0.038884 -0.008533
-0.158802 0.118846 -0.001872
-0.223408 0.427927 -0.029632
-0.174181 0.044935 -0.032960
0.200489 0.445602 0.003146
-0.116128 0.466498 -0.004952
-0.049313 -0.486211 -0.018596
-0.031811 0.432900 -0.009669
0.064584 0.433881 -0.021153
-0.220092 0.047116 -0.015288
-0.212308 -0.325386 -0.035071
-0.081357 0.503892 -0.028628
-0.070025 0.474317 -0.020349
-0.235690 0.201041 -0.012838
-0.179446 0.049853 -0.013911
-0.152713 -0.220176 -0.023298
-0.046023 0.444404 -0.012620
-0.212612 0.478318 0.023949
0.175498 0.196775 -0.024942
-0.175701 -0.052651 -0.024951
0.213738 0.372379 -0.010713
0.000679 0.475865 -0.000605
-0.001403 0.438710 -0.022604
-0.195270 0.377529 -0.029716
-0.201644 0.479685 -0.027649
-0.210917 0.250940 -0.010819
-0.105872 -0.426765 -0.020128
0.112564 -0.463652 -0.029397
-0.026036 -0.436855 -0.019251
-0.215522 -0.107674 -0.028483
0.214653 0.384820 -0.017498
-0.157468 0.332830 -0.018536
-0.202735 0.146346 -0.012587
0.195325 0.376046 -0.022572
-0.099981 -0.490375 -0.020443
0.221630 -0.270693 -0.031779
-0.160934 -0.400956 -0.019646
-0.118492 0.493115 -0.015253
0.116728 -0.460373 -0.020671
-0.219373 -0.132603 -0.019183
0.236990 -0.076140 -0.014374
0.194709 0.382020 -0.003159
0.175853 -0.174507 -0.013663
0.183476 0.128629 -0.013161
0.222773 0.333286 -0.004064
-0.203920 0.116216 -0.025100
-0.241618 -0.063180 -0.010172
-0.160155 -0.483513 -0.030865
-0.227921 -0.272567 -0.020360
0.161069 -0.073649 -0.001953
-0.225022 0.307214 -0.024440
-0.193160 0.427863 -0.016153
0.161222 0.138547 -0.025719
0.207958 0.114904 -0.016548
0.167700 0.319375 -0.024935
-0.215010 0.142557 -0.029402
0.167400 0.170230 -0.018969
-0.086063 -0.438886 -0.027216
0.157997 -0.299884 -0.021996
-0.185740 -0.149081 -0.011585
-0.174697 0.268193 -0.023308
-0.228299 0.128326 -0.026193
-0.179352 0.201691 -0.027166
-0.154764 -0.019165 -0.018451
-0.207912 0.481774 -0.005678
0.000603 -0.433369 -0.036639
-0.184745 0.326302 -0.015191
0.193290 -0.465937 -0.034188
-0.185550 0.027041 -0.032361
0.200051 0.258988 -0.025422
-0.220320 0.150084 -0.016897
0.189108 -0.431832 0.018040
0.159626 0.143186 -0.028253
0.181714 0.107381 -0.029914
-0.216514 0.477648 -0.028289
-0.168613 0.407375 -0.012472
0.157633 0.002176 -0.025227
0.079706 0.464957 -0.030687
0.217309 0.153596 -0.029316
-0.012003 0.475689 -0.009044
-0.181172 0.474151 0.036091
-0.188149 0.454687 0.032045
-0.229119 0.074075 -0.018780
-0.188809 -0.249611 -0.025228
0.217376 0.105162 -0.018431
0.230674 0.458354 -0.026413
-0.160346 0.432041 -0.029614
-0.069630 0.473064 -0.038304
-0.223261 0.433420 -0.016529
-0.216339 0.309431 -0.016898
0.214109 0.448847 -0.019405
-0.162225 0.258476 -0.021777
0.187149 -0.484944 -0.003500
-0.160088 0.471766 -0.033664
-0.153337 0.108707 -0.023322
0.167938 0.088903 -0.028671
-0.187348 0.140457 -0.015126
-0.158326 -0.458929 0.012889
0.172593 0.111521 -0.027774
-0.153378 0.502355 -0.008042
0.147021 0.450519 -0.035022
-0.182379 0.051723 -0.037427
0.187704 -0.284012 -0.014395
0.062220 0.427195 -0.019609
-0.225620 -0.136948 -0.013874
0.062922 -0.504107 -0.023105
-0.223753 -0.309459 -0.015126
0.182777 -0.417696 -0.032103
-0.203033 -0.440496 -0.002777
0.199672 -0.080926 -0.034755
0.128745 -0.422011 -0.020568
-0.217702 0.124573 -0.009038
-0.155757 -0.411517 -0.031450
0.190554 -0.438906 0.004747
-0.194374 0.023102 -0.038673
0.150841 -0.448379 -0.005556
-0.203468 0.464936 -0.027137
0.212552 -0.225888 -0.010250
0.224957 -0.056417 -0.018821
0.210030 -0.286745 -0.001209
-0.176332 -0.449841 0.041507
0.177149 0.025832 -0.037238
0.034581 0.436954 -0.010534
0.213294 -0.358054 -0.012154
0.191616 0.329435 -0.027891
0.194449 -0.343634 -0.008336
-0.170381 0.179357 -0.033628
-0.191944 -0.099522 -0.014497
0.167099 0.227561 -0.027493
0.095701 0.455966 -0.011825
-0.117211 0.480542 -0.023212
0.211650 0.191946 -0.009814
0.176128 -0.365441 -0.007803
0.185503 -0.247921 -0.008932
-0.175467 -0.240188 -0.025044
0.184808 -0.492313 -0.029651
-0.156706 -0.207026 -0.010880
-0.200899 -0.197086 -0.023122
0.191381 -0.224430 0.004903
0.164276 0.353293 -0.023389
-0.040389 -0.497722 -0.019010
-0.175366 -0.272812 -0.033753
-0.218732 -0.469477 -0.013551
0.170446 0.481219 0.025184
-0.204900 0.444143 0.016571
-0.168598 0.131830 -0.026802
-0.192932 0.034628 -0.037020
-0.188128 -0.070199 -0.030110
0.238965 0.260292 -0.024955
-0.222010 0.085974 -0.018478
0.177498 -0.175870 -0.030012
-0.052893 -0.468956 -0.033618
-0.156133 0.034482 -0.009078
0.096348 0.464774 -0.024433
-0.162555 0.420767 -0.023733
0.171001 0.149844 -0.020139
-0.168283 0.265025 -0.010844
0.169270 -0.055689 -0.014510
-0.192582 0.099569 -0.023886
0.194119 -0.463501 -0.028342
-0.200239 -0.417583 -0.024218
-0.165377 -0.484473 0.012327
0.110049 -0.480641 -0.017454
-0.181466 -0.487797 -0.005474
0.216483 0.012481 -0.019235
-0.165573 0.045821 -0.007159
0.217076 0.196213 -0.025969
0.169844 -0.477958 0.019522
0.214274 0.428912 -0.012404
0.191274 0.458069 0.025421
0.203664 -0.044466 -0.031011
-0.214610 0.176649 -0.013144
-0.185845 -0.195458 -0.034511
0.212881 -0.343579 -0.014812
-0.168959 0.400107 -0.032589
0.212778 0.206602 -0.010768
-0.086527 -0.457452 -0.031936
0.198573 -0.438042 0.026830
0.160559 0.200849 -0.004567
0.051977 0.437031 -0.018486
-0.174895 0.211953 -0.015028
0.194793 -0.447822 -0.026865
-0.213281 -0.095657 -0.001620
-0.170331 0.298462 -0.012835
0.172293 0.118125 -0.026076
-0.213441 -0.343764 -0.014895
-0.156351 0.201935 -0.026416
-0.214244 -0.093232 -0.022358
0.176323 -0.252411 -0.006658
0.139532 0.506643 -0.014477
-0.175783 0.049109 -0.011028
-0.159194 0.318684 -0.020859
0.208865 -0.354214 -0.018781
-0.197197 -0.274881 -0.025003
-0.178648 0.163581 -0.015720
-0.203570 0.244226 -0.014928
0.220167 0.157766 -0.021792
-0.157624 0.394411 -0.024821
-0.204748 -0.170309 -0.024603
0.117874 -0.435975 -0.006507
0.183354 0.251668 -0.028339
-0.077757 0.481688 -0.024163
0.185700 -0.424541 -0.018548
-0.174244 -0.356416 -0.030514
-0.145800 0.433444 -0.021508
0.202980 0.438249 -0.036309
0.185432 -0.453219 -0.028227
-0.184582 -0.439422 0.034928
-0.105549 0.503414 -0.021075
0.208051 0.375274 -0.013979
0.079731 0.461224 -0.009997
0.226645 0.144983 -0.008035
0.070108 -0.463859 -0.016413
0.192962 0.234193 -0.014312
0.067508 0.497130 -0.013872
-0.196885 -0.483500 0.017912
-0.164726 -0.276370 -0.028208
0.206313 0.427203 -0.034964
0.078457 -0.472568 -0.007167
-0.201302 0.027668 -0.019228
-0.137674 -0.423399 -0.013871
0.174227 0.443115 -0.019743
0.206232 0.217554 -0.034532
0.225203 -0.219685 -0.025101
0.235732 -0.000923 -0.009369
0.183225 0.276108 -0.029883
-0.206514 0.076392 -0.012328
-0.183239 -0.482716 -0.009318
-0.164491 -0.341271 -0.021225
-0.163686 -0.468666 -0.015418
-0.217126 -0.247329 -0.016670
-0.224046 -0.210632 -0.023619
-0.162640 0.448841 0.015244
-0.206737 -0.154280 -0.027862
0.164157 -0.473335 -0.006814
-0.162315 -0.253831 -0.012552
0.218824 -0.150878 -0.018289
0.169986 0.255200 -0.006752
-0.204893 -0.021524 -0.027052
0.160619 0.169943 -0.028381
0.180627 0.496172 -0.009234
0.175997 -0.054139 -0.020549
0.191539 -0.217424 -0.008932
0.216204 -0.333509 -0.032744
-0.213364 0.462543 -0.020144
0.207595 0.474639 -0.000584
-0.222692 -0.349579 -0.016001
-0.169810 -0.029226 -0.021248
0.162425 0.297218 -0.033016
-0.212180 0.047379 -0.026127
-0.208974 -0.467573 0.021288
-0.183981 0.348713 -0.024363
-0.232609 -0.408011 -0.018347
-0.174282 -0.225561 -0.024434
-0.105595 0.501783 -0.007873
0.034198 -0.483321 -0.016445
0.161550 -0.369677 -0.009124
-0.212038 0.461865 0.020781
0.070944 0.449166 -0.014804
-0.220850 0.156793 -0.013208
-0.191012 -0.106360 -0.019975
0.188900 0.390054 -0.014885
-0.214347 -0.479207 -0.004173
0.190708 -0.189414 -0.024753
0.131284 0.505966 -0.026527
-0.227526 0.416737 -0.020229
0.208475 -0.355576 -0.024943
0.206821 -0.136107 -0.041318
-0.099515 0.427348 -0.021753
0.174512 0.374467 -0.031878
-0.180522 0.212649 -0.027893
-0.151442 0.491539 -0.016744
-0.210787 -0.459554 0.025501
-0.116365 -0.504865 -0.026581
-0.210527 -0.358907 -0.027561
-0.000126 -0.450714 -0.018314
-0.184961 -0.092776 -0.026193
0.047945 0.455879 -0.017971
0.167021 -0.172976 -0.016133
0.220120 0.267588 -0.038052
0.211824 0.485389 -0.027082
-0.065296 -0.443235 -0.021729
-0.076911 0.490920 -0.023713
0.161364 -0.265659 -0.018114
-0.225841 0.254041 -0.006322
0.085943 0.457386 -0.008633
-0.081897 0.467437 -0.001404
-0.191370 0.179510 -0.016568
0.166412 0.303631 -0.005292
0.191184 0.265650 -0.032582
0.000289 -0.458661 -0.032339
-0.203026 -0.287337 -0.028867
0.038672 -0.458251 -0.036172
-0.220111 0.458028 -0.020844
-0.084300 -0.452345 -0.025435
0.097767 0.496708 -0.013475
0.184539 0.145266 -0.010767
0.196083 -0.429137 -0.014611
-0.167649 0.411517 -0.032906
0.214068 0.407818 -0.008822
0.201737 0.387867 -0.009611
-0.199589 0.086553 -0.009263
-0.124526 -0.494160 -0.031224
-0.166740 0.470149 0.029680
-0.200825 -0.284261 -0.030946
0.174199 0.270121 -0.033307
0.214376 -0.050799 -0.015664
-0.180663 -0.209567 -0.020033
0.185123 -0.161820 -0.016143
0.222733 -0.210485 -0.027331
0.028475 0.462385 -0.008251
0.227029 0.037364 -0.019168
-0.156690 0.366683 -0.029291
0.199246 0.168857 -0.005340
-0.212185 -0.259708 -0.029315
-0.100393 0.448931 -0.027735
0.160322 -0.461643 0.018502
0.059951 0.437755 -0.009123
0.227058 0.297523 -0.007577
-0.225929 -0.244812 -0.025242
-0.166624 0.401591 -0.015719
-0.200815 0.003915 -0.022453
-0.196198 0.004913 -0.038222
0.013537 -0.436466 -0.033589
0.160864 -0.168611 -0.023454
-0.191817 0.389634 -0.021439
-0.173371 -0.021106 -0.013547
-0.054155 -0.453108 -0.016976
-0.156734 0.303379 -0.011114
0.220025 0.088345 -0.013382
-0.013258 0.458001 -0.020121
-0.147871 0.480383 -0.012601
-0.000533 0.464702 -0.033743
-0.224823 -0.009572 -0.026684
0.181679 -0.266558 -0.011634
-0.177977 0.217438 -0.016221
0.190136 0.342202 -0.032459
0.213301 -0.167595 -0.009371
-0.126793 -0.499952 -0.011881
-0.172999 0.026174 -0.003441
-0.132630 0.472480 -0.025591
0.158557 0.141784 -0.021536
0.197901 -0.477293 0.030112
-0.159997 -0.006677 -0.015142
-0.211334 0.372427 -0.015212
0.043023 -0.467044 -0.015581
0.165506 0.346611 -0.021321
0.175394 -0.199988 -0.026885
0.017565 -0.480078 -0.010350
-0.168863 0.221829 -0.033076
-0.176050 0.369284 -0.004875
-0.204251 -0.267318 -0.028920
-0.136252 0.501377 -0.027411
-0.198010 0.103255 -0.020862
-0.214654 0.184387 -0.032123
0.002457 0.498384 -0.007538
0.140278 0.442991 -0.042564
0.169266 0.258314 -0.025936
-0.164133 0.131876 -0.019112
0.037240 0.446001 -0.016166
0.183560 0.384219 -0.028161
-0.004865 0.503788 -0.032506
-0.231626 -0.425940 -0.033523
0.020848 0.463212 -0.015137
-0.158951 -0.158891 -0.011945
0.207290 0.486332 -0.002233
0.199963 -0.127991 -0.004379
-0.198164 -0.219626 -0.002435
-0.055072 -0.474226 -0.007105
-0.220731 -0.247486 -0.022017
0.156696 -0.185750 -0.011400
0.165442 0.382554 -0.018405
0.164461 -0.364744 -0.008025
-0.196489 -0.026171 -0.015037
-0.169040 -0.146693 -0.031573
-0.228834 0.127890 -0.030875
0.170844 0.373905 -0.029903
0.161192 0.067361 -0.017389
-0.062560 -0.479678 -0.021660
0.198361 0.208994 -0.012348
0.176863 0.082986 -0.031251
-0.220085 0.033175 -0.027318
0.116909 0.452389 -0.016893
-0.208199 -0.448288 0.007135
0.174485 -0.108336 -0.009514
0.186217 -0.365804 -0.028921
0.160156 0.368748 -0.033157
-0.211031 -0.244427 -0.012925
0.163463 0.462923 -0.006347
-0.090385 -0.440837 -0.027855
0.215377 0.136924 -0.032029
0.211225 -0.467693 0.017857
-0.213630 -0.443313 -0.003039
-0.056619 -0.481094 -0.008083
0.180359 -0.501990 -0.009868
-0.103034 -0.497468 -0.023598
0.168121 -0.331225 -0.031095
0.176669 -0.047087 -0.038421
0.206225 -0.275835 -0.016437
-0.182946 -0.511871 -0.020910
0.174694 0.082732 -0.014215
0.185774 -0.454551 -0.032951
0.166507 0.141599 -0.017146
-0.167308 -0.440397 -0.005040
0.206860 0.067094 -0.024865
0.128521 -0.451928 -0.005200
-0.041007 -0.433402 -0.020509
0.227613 0.048300 -0.008112
0.210874 -0.355151 -0.027601
0.175939 -0.044692 -0.017560
-0.201211 -0.338074 -0.016807
0.217081 0.341472 -0.030763
-0.221248 0.344971 -0.034519
0.169341 -0.023607 -0.017635
-0.032472 0.492496 -0.021488
0.193657 -0.498802 -0.017572
-0.171311 0.145776 -0.013043
-0.199767 -0.488560 -0.025130
0.235915 0.196247 -0.021237
-0.156403 -0.181769 -0.000248
0.109065 0.447551 -0.005802
-0.185030 0.435571 -0.029674
-0.214605 0.258066 -0.029284
-0.140808 -0.444924 -0.026680
0.209293 -0.296804 -0.018769
0.173158 -0.153642 -0.016068
-0.157755 -0.481081 -0.021623
-0.167299 -0.495559 -0.021278
-0.231267 -0.130355 -0.029056
-0.167540 -0.462557 0.010938
-0.193518 0.481959 0.012684
-0.205954 -0.139854 -0.008963
-0.205324 0.179449 -0.025884
-0.156688 -0.393956 -0.031114
-0.230229 -0.466564 -0.020697
0.188146 -0.495315 -0.026844
0.204527 0.005431 -0.006737
-0.185662 -0.413294 -0.027397
0.181372 0.273538 -0.014001
-0.152599 0.221147 -0.036298
-0.189556 -0.053490 -0.033542
-0.182112 0.160356 -0.029003
-0.197254 0.445739 -0.033515
-0.211965 0.397458 -0.019367
0.079905 -0.445306 -0.001204
0.170692 -0.062624 -0.024272
0.012224 -0.445096 -0.008155
-0.218541 0.476478 -0.017488
-0.230872 0.029829 -0.026325
-0.163595 -0.133194 -0.014032
0.204319 0.156742 -0.037929
-0.151604 0.472631 -0.005095
0.213200 0.441009 -0.020649
0.219648 0.154552 -0.016373
0.042143 0.503868 -0.011054
0.088617 -0.475853 -0.007550
-0.179453 0.023407 -0.005115
0.087952 0.490345 -0.013276
-0.038948 0.463640 -0.019561
-0.217917 -0.114077 -0.015486
-0.195412 0.082724 -0.026993
0.232069 0.399118 -0.024514
0.199070 -0.281459 -0.032405
-0.120979 0.476905 -0.013711
-0.157331 -0.456625 -0.026751
0.196762 0.170730 -0.012083
0.225823 -0.357460 -0.038615
-0.231319 0.146442 -0.008661
0.071732 0.493911 -0.016753
-0.227176 0.311134 -0.017257
-0.168340 -0.308989 -0.011082
0.011212 0.485911 -0.004911
0.158723 -0.358543 -0.021387
-0.162167 0.258767 -0.006255
-0.188830 -0.357465 -0.018633
0.138724 0.494401 -0.012404
0.070180 0.492177 -0.016644
-0.218426 0.339051 -0.023416
-0.195464 -0.262707 -0.014654
0.206742 -0.128769 -0.015009
0.174833 -0.322443 -0.006189
0.105579 -0.488432 -0.015316
0.186473 -0.358485 -0.005350
0.043819 -0.499038 -0.017816
-0.192258 0.150222 -0.026563
0.119036 -0.469929 -0.028245
0.207899 -0.461860 0.000240
-0.205287 -0.013570 -0.032714
-0.018032 0.429557 -0.015560
0.195958 -0.429282 -0.006691
-0.171663 0.149596 -0.032125
0.218073 -0.415138 -0.010833
0.228186 0.365897 -0.023642
-0.225896 0.462670 -0.028284
-0.174949 -0.273525 -0.014965
0.217818 -0.457936 -0.022162
0.158037 0.344896 -0.029054
-0.176147 -0.137901 -0.010561
-0.205263 0.085264 -0.009542
-0.211019 0.052844 -0.027321
0.102874 0.483572 -0.036532
0.170072 -0.102045 -0.029450
-0.183931 -0.458031 -0.033884
0.171294 -0.444248 0.029936
0.216938 0.422041 -0.013428
0.207151 0.280197 -0.006961
-0.160792 -0.225383 -0.020089
0.176415 0.444771 0.027532
0.014139 -0.447957 -0.036459
0.181083 -0.317750 -0.026356
-0.209913 0.216971 -0.019108
-0.004852 0.465163 -0.028863
0.196489 -0.212839 -0.016921
0.184367 0.216494 -0.024594
0.010447 0.484931 -0.027400
-0.109165 0.497415 -0.011896
-0.182033 0.174305 -0.011744
-0.097314 0.480061 -0.034997
-0.221674 -0.040463 -0.024116
-0.182097 0.118249 -0.011330
-0.153714 -0.462886 -0.021268
-0.047788 -0.426400 -0.025332
0.224219 -0.017194 -0.021063
0.215446 -0.006765 -0.023747
0.210568 0.077109 -0.026471
